# .PCD v0.7 - Point Cloud Data file format
VERSION 0.7
FIELDS x y z rgb
SIZE 4 4 4 4
TYPE F F F F
COUNT 1 1 1 1
WIDTH 999
HEIGHT 1
VIEWPOINT 0 0 0 1 0 0 0
POINTS 999
DATA ascii
0.15489395 -0.20225281 0.50212657 5.5317238e-40
0.16514009 -0.20198832 0.50287265 5.5317378e-40
0.17442451 -0.20280467 0.50495827 8.3047393e-40
0.18267636 -0.20657498 0.5081538 1.6587955e-39
0.12874308 -0.19895504 0.50792855 1.1049126e-39
0.13570325 -0.19814366 0.50660527 7.3792377e-40
0.14502677 -0.19728656 0.50621533 6.4573375e-40
0.1549065 -0.19804573 0.50645101 5.5354512e-40
0.16488379 -0.19823901 0.50733936 7.3792097e-40
0.17356992 -0.19817372 0.50793338 8.30118e-40
0.10644453 -0.21067882 0.51625001 9.208773e-40
0.10820273 -0.20818266 0.51545835 7.3721331e-40
0.11454433 -0.20455706 0.51335728 6.4573094e-40
0.12193917 -0.20038573 0.51055562 8.2977468e-40
0.17891859 -0.20079668 0.51050007 1.2922074e-39
0.18572158 -0.20374615 0.51293588 3.222894e-39
0.19161655 -0.20842656 0.51162505 1.6591626e-39
0.11847804 -0.19891065 0.51570588 9.219563e-40
0.12559325 -0.19623904 0.51538759 9.2160738e-40
0.13504215 -0.19365554 0.51433969 9.2232064e-40
0.14468248 -0.1924556 0.51307291 1.0141589e-39
0.15530208 -0.19343571 0.51436442 8.2976487e-40
0.16499554 -0.19337468 0.51415163 1.0141547e-39
0.17435335 -0.19549441 0.51550758 1.2907472e-39
0.18338722 -0.19692545 0.51746011 4.4210602e-39
0.1371524 -0.18928942 0.51840007 1.2918276e-39
0.14416857 -0.18867052 0.51762074 1.2921878e-39
0.15635906 -0.18931144 0.51900005 9.2413111e-40
0.16484183 -0.1895376 0.51863647 1.1074378e-39
0.17052858 -0.18931144 0.51900005 1.1999963e-39
0.098746672 -0.21613429 0.52900004 1.015577e-39
0.10315369 -0.21258019 0.52881825 9.2267937e-40
0.10793024 -0.20815501 0.52225 7.379546e-40
0.11380914 -0.20250779 0.52200001 5.5390666e-40
0.11724877 -0.19695444 0.52252781 1.0141701e-39
0.12399672 -0.19243175 0.5228774 1.0152449e-39
0.1312381 -0.19066668 0.5200001 1.6577431e-39
0.15431526 -0.19004098 0.52100003 1.1982013e-39
0.17826982 -0.19469537 0.52286369 1.751717e-39
0.18377867 -0.19352613 0.52502459 4.6061591e-39
0.12749001 -0.18949334 0.52499998 1.5669964e-39
0.13726398 -0.18647474 0.52380496 2.1208736e-39
0.14127488 -0.18523294 0.52322227 2.5807672e-39
0.15693133 -0.18792582 0.52473599 1.2914857e-39
0.16329974 -0.1867023 0.52342623 1.4755084e-39
0.17184763 -0.18967621 0.52000004 1.2925661e-39
0.093940005 -0.22022001 0.53900003 9.2196471e-40
0.097107455 -0.21535005 0.53375614 1.2903829e-39
0.10467725 -0.21238586 0.53383988 1.0152323e-39
0.10761658 -0.2091819 0.53860009 1.0159596e-39
0.11165 -0.20636003 0.53900003 1.1077853e-39
0.17890219 -0.19256125 0.53128576 2.028678e-39
0.18183622 -0.19145954 0.53183341 3.0406691e-39
0.19304001 -0.19456002 0.53200001 5.985872e-39
0.18189335 -0.18898667 0.53200001 3.779295e-39
0.097604528 -0.21491966 0.54564708 2.0279591e-39
0.10228295 -0.21159589 0.54543477 3.684591e-39
0.09986572 -0.20966573 0.54900002 4.8824223e-39
0.10723992 -0.20705555 0.54532701 2.2109113e-39
0.11240122 -0.20279139 0.54580772 1.7510093e-39
0.11796802 -0.19820623 0.54821056 1.658099e-39
0.12190859 -0.1959382 0.54741669 1.1060014e-39
0.093656197 -0.22096954 0.55560005 1.108521e-39
0.095151268 -0.21684965 0.55546153 1.2921822e-39
0.1012781 -0.21051657 0.55680007 5.5259939e-39
0.10584982 -0.20487973 0.55354381 6.0773544e-39
0.1113975 -0.20103249 0.55245459 3.9579521e-39
0.10924973 -0.1992825 0.55740005 9.671521e-39
0.11526468 -0.19544676 0.55484951 7.4588483e-39
0.12284974 -0.1918847 0.5539335 3.2214478e-39
0.13402985 -0.19024128 0.5533334 2.1179912e-39
0.14926597 -0.19077264 0.55875003 4.1466495e-39
0.15161276 -0.19084275 0.55662507 3.3176035e-39
0.16881621 -0.19086668 0.55566669 1.1999991e-39
0.17452157 -0.19119163 0.55415791 2.3949284e-39
0.18403983 -0.1906525 0.55433339 1.3818737e-39
0.1262458 -0.18762003 0.55631989 5.70676e-39
0.13452789 -0.18690406 0.55601591 3.1299837e-39
0.14399725 -0.18621941 0.55791169 5.3416054e-39
0.15400814 -0.18738273 0.55721039 3.8682592e-39
0.16888192 -0.18806741 0.55723089 3.0374279e-39
0.17479606 -0.18809357 0.55606681 5.0642814e-39
0.18276589 -0.18928081 0.55516672 2.3927774e-39
0.088872388 -0.22398731 0.56900001 4.8823817e-39
0.091121137 -0.22218087 0.56736368 3.1314004e-39
0.096149333 -0.21363999 0.56496447 4.3270667e-39
0.098820008 -0.20867145 0.56580007 6.444695e-39
0.10327099 -0.20419534 0.56330764 8.3808102e-39
0.10677734 -0.19715177 0.56561542 1.2712552e-38
0.11325607 -0.19289479 0.56266671 1.317425e-38
0.11735696 -0.18825622 0.56131572 1.3819624e-38
0.12361193 -0.18620734 0.56521285 1.3266818e-38
0.13600606 -0.18327092 0.56137931 1.0039953e-38
0.14515571 -0.18356159 0.56233346 9.3034868e-39
0.15509892 -0.18453892 0.56345099 8.1975077e-39
0.16476342 -0.18513776 0.56100023 9.8559319e-39
0.17487687 -0.18491273 0.56225586 9.9517246e-39
0.1809103 -0.18572573 0.5620001 7.0014519e-39
0.084953211 -0.23149066 0.57657146 1.5687564e-39
0.087380283 -0.22449626 0.5736137 5.8021926e-39
0.091631912 -0.2205143 0.57100004 3.5905821e-39
0.089805245 -0.21927859 0.57850003 8.0137597e-39
0.09252587 -0.21566549 0.57416219 8.1016617e-39
0.09742292 -0.20579717 0.57240003 1.1697302e-38
0.10124572 -0.20224366 0.57127285 1.2067534e-38
0.10579616 -0.19476554 0.57137513 1.4004731e-38
0.11300629 -0.19155358 0.57085717 1.4098015e-38
0.10911429 -0.1889143 0.57000005 1.3274734e-38
0.11625446 -0.18768007 0.57130295 1.3638496e-38
0.12053201 -0.1853103 0.57060003 1.345375e-38
0.083087943 -0.23118317 0.58166671 3.0377698e-39
0.085538357 -0.22553492 0.58432364 8.1963965e-39
0.088824973 -0.21857461 0.58333331 1.1422506e-38
0.092394806 -0.21358815 0.58374286 1.2159358e-38
0.094863005 -0.20975663 0.58642858 1.2620348e-38
0.15467311 -0.18525191 0.58748275 9.3038525e-39
0.16161755 -0.18468343 0.588 8.7485263e-39
0.15288001 -0.17976001 0.588 7.3673309e-39
0.078627199 -0.2322437 0.59300005 4.8788098e-39
0.082343817 -0.23115277 0.59140009 4.8788238e-39
0.078347474 -0.22884272 0.59183335 6.9982289e-39
0.083950311 -0.2252214 0.59386951 9.9491911e-39
0.088306881 -0.21695472 0.59481478 1.1699472e-38
0.092647925 -0.21245725 0.59603578 1.2345203e-38
0.097456999 -0.20769982 0.59721738 1.2346652e-38
0.10501575 -0.20338075 0.59751439 1.2624326e-38
0.11068572 -0.20036954 0.59600002 1.3915056e-38
0.21283042 -0.20714025 0.59725004 6.0791536e-39
0.10909684 -0.19941112 0.59766668 1.1245019e-38
0.11416491 -0.19653349 0.59666663 1.1523047e-38
0.12037048 -0.19453239 0.59900004 1.2257383e-38
0.13862573 -0.19396192 0.59900004 1.2163349e-38
0.14343849 -0.19159633 0.59720004 1.1702012e-38
0.14660306 -0.18779612 0.59513342 1.0134699e-38
0.15441012 -0.18357942 0.59037507 8.0127521e-39
0.16223711 -0.18414429 0.59080005 7.82657e-39
0.083740562 -0.2219166 0.60158336 1.0593131e-38
0.086897992 -0.21464598 0.60613459 1.1054112e-38
0.091044374 -0.21090643 0.6034286 1.123994e-38
0.088690802 -0.20926541 0.60866672 1.0686417e-38
0.095265783 -0.20519829 0.60414517 9.3042126e-39
0.10238183 -0.20169318 0.60118186 8.4809414e-39
0.20833822 -0.20190182 0.60330003 7.1819181e-39
0.2153381 -0.20349611 0.60333353 3.961908e-39
0.22036669 -0.20662954 0.60100001 1.1978453e-39
0.098964289 -0.19946939 0.60650003 8.7463655e-39
0.10572314 -0.19663638 0.60490781 7.0929664e-39
0.11464473 -0.19344158 0.60440588 6.0813523e-39
0.12434517 -0.19171807 0.60245723 6.5455772e-39
0.13479571 -0.19192356 0.60181397 1.0415245e-38
0.14073239 -0.19103487 0.60020006 1.059929e-38
0.18856907 -0.19376004 0.60549998 5.9840825e-39
0.19484176 -0.19414485 0.60523254 7.5524985e-39
0.20531769 -0.19643922 0.60669822 8.8442953e-39
0.21361795 -0.19813739 0.60758346 3.317263e-39
0.1149729 -0.18727094 0.60857904 1.0500596e-38
0.12620012 -0.18835814 0.60571992 7.2748298e-39
0.13520299 -0.18730164 0.60621178 8.4733659e-39
0.14221166 -0.18723971 0.60176194 8.2922215e-39
0.1496689 -0.1751616 0.60833335 9.5836694e-39
0.1553314 -0.17433092 0.60405022 8.6577432e-39
0.16456807 -0.17458101 0.60464919 5.9862546e-39
0.17081906 -0.1748724 0.60800004 7.2780556e-39
0.15595046 -0.1686262 0.60750008 1.1238154e-38
0.16223371 -0.16918559 0.60837507 8.7496039e-39
0.086068586 -0.21079938 0.61199999 1.1238871e-38
0.088836513 -0.20897113 0.61233342 1.1055546e-38
0.093444765 -0.20326564 0.61322218 1.1055183e-38
0.098217979 -0.19716653 0.61570835 1.1332507e-38
0.10400227 -0.19325456 0.61488676 1.1425423e-38
0.11069739 -0.19109882 0.61175001 1.0777888e-38
0.12319144 -0.19057658 0.61420006 8.5651916e-39
0.20835525 -0.19379112 0.61166668 5.5249303e-39
0.21449818 -0.19640611 0.61146671 1.1049252e-39
0.107302 -0.18908009 0.61625004 1.2530344e-38
0.11474828 -0.18812567 0.61184627 1.1054479e-38
0.12557365 -0.18566705 0.61520368 1.0871543e-38
0.13119619 -0.18395506 0.6128 1.1515471e-38
0.14373334 -0.18010668 0.61600006 7.9209293e-39
0.12475715 -0.17981429 0.61500001 6.4508719e-39
0.14668545 -0.17477494 0.61599988 1.0778984e-38
0.15045811 -0.17145175 0.61233342 1.3452666e-38
0.16808642 -0.17172717 0.61175001 6.6305842e-39
0.17325708 -0.17183936 0.61750001 9.0254761e-39
0.14878403 -0.1681743 0.6170001 1.3726722e-38
0.15482147 -0.16470034 0.61493421 1.215867e-38
0.16478555 -0.16463025 0.6139999 9.4867892e-39
0.17322053 -0.16665792 0.61803573 1.0041776e-38
0.15705197 -0.15799446 0.61855018 1.2157235e-38
0.16405475 -0.15853806 0.61810535 1.0501304e-38
0.098609529 -0.19426668 0.62 1.2069741e-38
0.10333334 -0.18954287 0.62 1.2439244e-38
0.11943033 -0.18635033 0.62183338 1.1516569e-38
0.12205865 -0.18528464 0.6212858 1.1149214e-38
0.14309332 -0.1732554 0.62271428 1.1055204e-38
0.17712192 -0.1711981 0.62200004 1.1423279e-38
0.14628753 -0.16605793 0.6225 1.3633809e-38
0.15151621 -0.16155431 0.61999995 1.4002958e-38
0.17449802 -0.16438858 0.62109095 7.0050672e-39
0.14939049 -0.15883811 0.62 1.4650494e-38
0.15417644 -0.15678701 0.61999995 1.3543052e-38
0.16710477 -0.15824762 0.62 1.0684607e-38
0.13695157 -0.18124022 0.63699996 1.133107e-38
0.14112358 -0.18092835 0.63325 1.105556e-38
0.13715816 -0.1785039 0.63841176 1.0965909e-38
0.1411954 -0.17704065 0.63546163 9.3960607e-39
-0.30124289 0.24860144 0.63900006 2.341769e-38
-0.29394007 0.2484376 0.63900006 2.341769e-38
-0.28573942 0.24913093 0.63872731 2.341769e-38
-0.27759558 0.24734081 0.63900006 2.341769e-38
-0.26346037 0.24885681 0.63887501 2.341769e-38
-0.25643387 0.24886224 0.6388889 2.341769e-38
-0.24525431 0.24890573 0.63900006 2.2589013e-38
-0.30123326 0.25488022 0.63804549 2.341769e-38
-0.29471239 0.25468481 0.63640583 2.341769e-38
-0.28501692 0.25532791 0.63762254 2.341769e-38
-0.27481878 0.25512913 0.63797355 2.341769e-38
-0.26513851 0.25488573 0.63721359 2.341769e-38
-0.25487208 0.25439882 0.63581926 2.3325494e-38
-0.24472097 0.25497633 0.63660198 2.2035124e-38
-0.23915282 0.25545353 0.63757151 2.1302595e-38
-0.30280995 0.26518491 0.63456416 2.341769e-38
-0.2944546 0.26428458 0.63356233 2.341769e-38
-0.28515047 0.26420447 0.63391805 2.3325494e-38
-0.27520132 0.26426813 0.63375324 2.341769e-38
-0.26497629 0.26421994 0.63319671 2.3325494e-38
-0.25495493 0.26411018 0.63299966 2.3325494e-38
-0.24458237 0.26462042 0.63351446 2.1851815e-38
-0.23909114 0.2654357 0.63583338 1.6510993e-38
0.12774858 -0.18267429 0.648 1.0964819e-38
0.13078357 -0.18137024 0.64775002 1.0412741e-38
0.13643652 -0.17592582 0.64320016 1.1330354e-38
0.14312518 -0.17227273 0.64327598 1.2802598e-38
0.13813382 -0.16711667 0.64750004 1.3542325e-38
0.14670005 -0.16747023 0.64711106 1.3634156e-38
0.15393804 -0.16392769 0.64702702 1.4833802e-38
0.16653784 -0.1614902 0.64670002 1.1424711e-38
0.17101943 -0.16215467 0.64640003 1.0135767e-38
0.15536751 -0.15968585 0.64737499 1.4375341e-38
0.16491085 -0.1593775 0.64612502 1.1699853e-38
-0.29243544 0.22827201 0.64779997 2.341769e-38
-0.2860457 0.22844574 0.64799994 2.341769e-38
-0.27750859 0.22875431 0.648 2.341769e-38
-0.26352003 0.22896002 0.648 2.341769e-38
-0.29412046 0.23543847 0.64575422 2.3325494e-38
-0.28482658 0.23489618 0.64549375 2.341769e-38
-0.27522093 0.23515555 0.64633781 2.341769e-38
-0.26508063 0.23619792 0.64728856 2.341769e-38
-0.255207 0.23617232 0.64613843 2.341769e-38
-0.24467565 0.23627646 0.6467002 2.3325493e-38
-0.23813567 0.23660803 0.64738101 2.0559652e-38
-0.30102503 0.24490564 0.64200002 2.341769e-38
-0.29513571 0.24393724 0.64211118 2.341769e-38
-0.2850489 0.24434002 0.64142841 2.341769e-38
-0.27444968 0.24424887 0.6426028 2.341769e-38
-0.26532543 0.24434099 0.64263654 2.341769e-38
-0.25503641 0.24460532 0.64187127 2.341769e-38
-0.24486104 0.24457538 0.64237851 2.2772323e-38
-0.23757499 0.24530222 0.64511555 2.2495379e-38
-0.30561444 0.25631055 0.64230001 2.341769e-38
-0.27184764 0.2505143 0.64000005 2.341769e-38
-0.24076192 0.25782859 0.64000005 2.2958513e-38
-0.23858894 0.25563952 0.64380646 2.119783e-38
-0.23906478 0.26473337 0.64200008 2.3415535e-38
0.12598166 -0.1814785 0.65200001 1.1520887e-38
0.13061905 -0.18014286 0.65000004 1.1336848e-38
0.12716964 -0.17707573 0.6525557 1.1700961e-38
0.13473181 -0.17452578 0.65206259 1.2435984e-38
0.14093652 -0.17065081 0.65000004 1.3448334e-38
0.13779691 -0.16945502 0.65175003 1.354125e-38
0.14564499 -0.16551664 0.65053838 1.3818915e-38
0.15073811 -0.1621905 0.65000004 1.4189509e-38
-0.2863867 0.20962001 0.65800005 2.341769e-38
-0.29036671 0.21668351 0.65566671 2.341769e-38
-0.28463557 0.21511672 0.65576792 2.341769e-38
-0.27492067 0.21597596 0.65547198 2.341769e-38
-0.26524591 0.21708895 0.65614301 2.341769e-38
-0.25456464 0.21710002 0.65674376 2.341769e-38
-0.24518119 0.21752658 0.65764111 2.341769e-38
-0.23673667 0.21846101 0.6577059 2.2587934e-38
-0.29179177 0.22494194 0.65100002 2.341769e-38
-0.28480056 0.22421654 0.65222245 2.341769e-38
-0.27482113 0.22512192 0.65244913 2.341769e-38
-0.26469746 0.22476253 0.65178114 2.341769e-38
-0.25495216 0.22472966 0.65290004 2.341769e-38
-0.2447475 0.22493309 0.65372974 2.341769e-38
-0.2354548 0.22553746 0.65536118 2.1110664e-38
-0.22963718 0.22838446 0.65700001 1.6036338e-38
-0.27238095 0.23131749 0.6500001 2.341769e-38
-0.26536465 0.23232779 0.65004539 2.341769e-38
-0.25377327 0.23161936 0.65047985 2.341769e-38
-0.24641921 0.23155345 0.65033334 2.3417689e-38
-0.23492773 0.23412612 0.65295011 1.8336559e-38
-0.23460519 0.24102861 0.65542865 2.2954915e-38
-0.23789215 0.25590232 0.65060002 1.9627636e-38
0.12283698 -0.1839426 0.66081822 1.1980788e-38
0.13282953 -0.17311905 0.66100001 1.4739809e-38
-0.2828179 0.19528584 0.66690481 2.341769e-38
-0.27552989 0.19661509 0.66822511 2.341769e-38
-0.26656911 0.19862138 0.66886669 2.341769e-38
-0.2835204 0.20488693 0.66196692 2.3325494e-38
-0.27486029 0.20488377 0.6634683 2.341769e-38
-0.26520663 0.20502909 0.66523141 2.3325494e-38
-0.25514638 0.20607196 0.66572887 2.341769e-38
-0.24471472 0.20637996 0.66616994 2.341769e-38
-0.23476626 0.20597403 0.66684127 2.2495381e-38
-0.2287343 0.20707145 0.66900003 1.6673819e-38
-0.28317145 0.21057144 0.66000003 2.341769e-38
-0.27382949 0.21220312 0.66029626 2.341769e-38
-0.26422203 0.21238576 0.66125005 2.341769e-38
-0.25543019 0.21267571 0.66164106 2.341769e-38
-0.24467222 0.21272469 0.66181833 2.341769e-38
-0.23380029 0.21438302 0.66285497 2.0929145e-38
-0.22943373 0.21393926 0.66660005 1.7688668e-38
-0.23132935 0.22378957 0.66465378 1.8249747e-38
-0.22880425 0.2248037 0.66814297 2.0737572e-38
-0.23255716 0.23000859 0.66900003 1.8427299e-38
-0.27529255 0.17838268 0.67893744 2.3325134e-38
-0.26761228 0.17804891 0.67900002 2.341769e-38
-0.28190216 0.1853517 0.67541671 2.3325852e-38
-0.27497879 0.18477878 0.67579448 2.341769e-38
-0.265071 0.18492058 0.67677158 2.341769e-38
-0.25499082 0.18569316 0.67710644 2.341769e-38
-0.24612759 0.18672554 0.67830968 2.341769e-38
-0.23517565 0.18712378 0.67865729 2.3233659e-38
-0.22835074 0.18827192 0.67874998 2.341769e-38
-0.28173679 0.19076155 0.67080003 2.341769e-38
-0.27450651 0.19190507 0.67141187 2.341769e-38
-0.2645978 0.19423997 0.67137718 2.3325494e-38
-0.25496057 0.19491959 0.67250007 2.341769e-38
-0.24513663 0.194529 0.67414081 2.341769e-38
-0.23513971 0.19481727 0.67340523 2.3048909e-38
-0.22641654 0.19533658 0.67591238 1.8340861e-38
-0.26098096 0.20100002 0.67000002 2.341769e-38
-0.25353879 0.20165689 0.67057139 2.341769e-38
-0.2453911 0.20144655 0.67063993 2.341769e-38
-0.23364198 0.20225373 0.67017645 2.1573073e-38
-0.22656152 0.20423576 0.67197782 1.824507e-38
-0.2303524 0.21503811 0.67000002 1.6601005e-38
-0.22751684 0.21487188 0.67125916 1.9538624e-38
-0.23075788 0.22501406 0.67025 1.9998904e-38
-0.22941811 0.22047144 0.671 2.0938132e-38
-0.2316286 0.2307778 0.67000002 2.1653378e-38
-0.27195528 0.16853867 0.68380004 2.1023494e-38
-0.26445225 0.16746524 0.68586212 1.3450169e-38
-0.25495848 0.1681456 0.68832147 1.3452369e-38
-0.24791907 0.16943365 0.68866676 1.5371584e-38
-0.27344146 0.17413881 0.68176657 2.221591e-38
-0.26463458 0.17427707 0.68261892 2.1293591e-38
-0.25502914 0.17515418 0.68411994 2.2676873e-38
-0.24498104 0.17505969 0.68549997 1.9451849e-38
-0.23552623 0.1759306 0.68559194 2.0000694e-38
-0.22932002 0.17966668 0.68600005 2.341769e-38
-0.26228574 0.18068573 0.68000001 2.341769e-38
-0.25580955 0.18068574 0.68000001 2.341769e-38
-0.24382053 0.18210995 0.68120599 2.3325494e-38
-0.23460807 0.18215321 0.68194115 2.3325134e-38
-0.2262817 0.18537217 0.68402004 1.8707437e-38
-0.22357471 0.1918886 0.68300003 1.4267372e-38
-0.26088575 0.16494286 0.69000006 2.3141819e-38
-0.25497144 0.16625714 0.69000006 2.2492139e-38
-0.24642859 0.1678635 0.69000006 2.3044231e-38
-0.24314287 0.17020001 0.69000006 1.2265371e-38
-0.23985715 0.17020001 0.69000006 1.6058627e-38
0.31828988 -0.30033177 0.74433345 1.5670048e-39
0.32552224 -0.30208609 0.74322224 1.9361405e-39
0.33493835 -0.30206138 0.74309099 1.940448e-39
0.34525713 -0.30262882 0.74591672 2.6755034e-39
0.35253474 -0.30268115 0.74780005 2.7680717e-39
0.30922955 -0.29366192 0.74300003 1.1081847e-39
0.31574744 -0.29445559 0.74515706 1.4769602e-39
0.32524833 -0.29477704 0.74403584 1.5687943e-39
0.33492813 -0.29477546 0.74379247 1.6631395e-39
0.34535059 -0.29480177 0.7456367 2.4903988e-39
0.35267976 -0.29533014 0.74778956 2.3085257e-39
0.31833333 -0.28727394 0.74717647 1.5677139e-39
0.32534543 -0.28456303 0.74546289 1.5680698e-39
0.3356072 -0.28469601 0.74488258 1.6613458e-39
0.34505278 -0.28454205 0.74523288 1.5695243e-39
0.35342762 -0.28528842 0.74775994 2.1219709e-39
0.27782688 -0.27669239 0.7438001 2.1172667e-39
0.28157422 -0.27659681 0.74612504 1.199632e-39
0.32675058 -0.27600229 0.74668288 1.4762357e-39
0.3356348 -0.27461684 0.74532014 1.4769546e-39
0.34508067 -0.27495623 0.74573183 1.3836841e-39
0.35247266 -0.27729809 0.74746674 1.1078147e-39
0.3298324 -0.26999241 0.74800003 1.4765874e-39
0.33556679 -0.26856577 0.74757904 1.5680628e-39
0.34374943 -0.26924393 0.74790013 1.292915e-39
0.066110812 -0.3046934 0.75388592 2.9531398e-39
0.072068006 -0.30202577 0.75220007 2.8530184e-39
0.35707512 -0.30399406 0.7502858 2.6758705e-39
0.36516342 -0.30444539 0.75490326 3.0446488e-39
0.37225765 -0.30300096 0.75749999 3.3198022e-39
0.068231985 -0.29769346 0.7552858 7.286354e-39
0.073296763 -0.29605797 0.75386381 7.5571241e-39
0.30547774 -0.29076684 0.75337505 1.1996586e-39
0.31157598 -0.29153821 0.75145453 1.2922214e-39
0.35774556 -0.29518381 0.75047064 2.6754978e-39
0.36444071 -0.29434434 0.75227052 2.6755146e-39
0.37316313 -0.2950668 0.75621748 3.1357711e-39
0.29643944 -0.2828072 0.75461304 3.0388587e-39
0.30440482 -0.28411388 0.7515099 1.1067385e-39
0.31439477 -0.28449365 0.75051028 1.2911368e-39
0.32071429 -0.2807143 0.75000006 1.3840443e-39
0.35812506 -0.28544644 0.75000006 2.3074425e-39
0.36477822 -0.28416955 0.75150031 2.4918352e-39
0.37330917 -0.28424954 0.75534493 3.0435782e-39
0.28576002 -0.2785981 0.75200003 1.4744336e-39
0.29488966 -0.27468601 0.7564708 3.9611681e-39
0.30516121 -0.27480391 0.75529999 1.1067399e-39
0.31538811 -0.27511916 0.75369364 1.2907724e-39
0.32308903 -0.27347422 0.7509715 1.4758756e-39
0.35619155 -0.27401501 0.75272423 9.2413532e-40
0.36450917 -0.27585304 0.75627017 1.6627934e-39
0.3726792 -0.27716345 0.7576251 2.3996451e-39
0.28852129 -0.26638287 0.75800002 2.7666074e-39
0.29092765 -0.26782668 0.75800008 7.6442891e-39
0.30804813 -0.26861066 0.75749993 1.0152646e-39
0.31600431 -0.26528761 0.75685996 1.107449e-39
0.32498294 -0.26485959 0.75248271 1.29185e-39
0.3344796 -0.26401135 0.75028586 1.4762273e-39
0.34511393 -0.26461786 0.75073707 1.107449e-39
0.35277107 -0.26575041 0.75426102 7.3829652e-40
0.31980383 -0.25916383 0.75800002 1.9332566e-39
0.32572401 -0.25615114 0.75691479 1.1996544e-39
0.33469024 -0.25522196 0.75352925 1.2922046e-39
0.34445533 -0.25497219 0.7526741 7.3973845e-40
0.35134885 -0.2562131 0.75674999 5.5390946e-40
0.33604181 -0.246748 0.75653332 1.3836715e-39
0.34324744 -0.2468053 0.75568962 9.230381e-40
0.059130006 -0.31243861 0.7665 1.5680684e-39
0.06023429 -0.31060481 0.76200002 1.2918374e-39
0.3698667 -0.3105143 0.76000005 3.2279541e-39
0.37623501 -0.31119454 0.76300001 3.1375997e-39
0.3841162 -0.31193385 0.76750004 1.5855474e-38
0.062925547 -0.3045302 0.76358831 1.6609885e-39
0.37548283 -0.30576557 0.76056254 2.6733748e-39
0.38379136 -0.30514663 0.76643479 9.2268245e-39
0.0669429 -0.29500639 0.76525003 7.0097601e-39
0.072464608 -0.29274759 0.76338893 1.3462385e-38
0.37876591 -0.29475826 0.76042867 7.3767014e-40
0.38488984 -0.29394305 0.76500005 1.152771e-38
0.39716575 -0.29769143 0.76800001 1.6387392e-38
0.068952858 -0.2879948 0.76750004 1.1894703e-38
0.072093762 -0.28654587 0.76656258 1.3738993e-38
0.37855241 -0.28337145 0.76000005 2.9499435e-39
0.38486269 -0.28511605 0.76424241 9.1353267e-39
0.30182859 -0.27142859 0.76000005 1.2007166e-39
0.3102867 -0.2710467 0.76300001 9.237906e-40
0.36697146 -0.27215242 0.76000017 1.7524709e-39
0.37558407 -0.27374858 0.76058334 2.4921897e-39
0.38486364 -0.27482244 0.76512504 6.8265011e-39
0.28780672 -0.26144287 0.76285726 1.8439308e-39
0.29536939 -0.26462039 0.76157707 5.3437522e-39
0.30474699 -0.26475692 0.76150012 1.0156233e-39
0.31219989 -0.26195726 0.76030779 1.1975132e-39
0.35802618 -0.26417199 0.76322228 6.4682536e-40
0.36543772 -0.26559833 0.76389569 1.1088909e-39
0.3745237 -0.26457882 0.76305991 2.1212618e-39
0.38401705 -0.26542577 0.76684368 3.9687981e-39
0.28708041 -0.25492692 0.76606888 1.4762147e-39
0.29447559 -0.25570816 0.76644725 7.2787632e-39
0.30530095 -0.25570244 0.76493984 1.1989229e-39
0.31526875 -0.25509951 0.76291215 1.2900536e-39
0.32284266 -0.25268191 0.76117402 1.1989313e-39
0.35394287 -0.25984764 0.76000005 8.2907123e-40
0.36693555 -0.25914261 0.76771438 1.2007138e-39
0.37508088 -0.25561872 0.76707131 1.5684453e-39
0.38214535 -0.25768802 0.76780009 3.1311286e-39
0.28606302 -0.24630757 0.76635307 4.9796542e-39
0.29271775 -0.24766174 0.76800007 9.4014403e-39
0.31616244 -0.24734747 0.76703334 1.1074588e-39
0.32518533 -0.24550913 0.76511472 1.1070916e-39
0.33361036 -0.243486 0.76192516 1.291127e-39
0.34529299 -0.2425724 0.76087505 7.3901819e-40
0.35090101 -0.24365908 0.76600003 6.4646102e-40
0.27246764 -0.23010002 0.76700002 1.1800696e-38
0.32725444 -0.23709102 0.76673687 1.3826037e-39
0.33535573 -0.23515753 0.76469368 1.2914871e-39
0.3439115 -0.23505938 0.76290488 6.4681555e-40
0.35044289 -0.23970002 0.76500005 9.2231503e-40
0.33724651 -0.22785354 0.76780009 1.2907612e-39
0.34399334 -0.22670448 0.76711541 4.6314596e-40
0.017212193 -0.31649658 0.7790001 1.5688027e-39
0.024459327 -0.31576014 0.77828574 1.3840471e-39
0.035094853 -0.31517497 0.77677774 1.4199615e-38
0.045176219 -0.31397432 0.77527285 1.0601131e-38
0.054931283 -0.3132025 0.77563149 7.0007694e-39
0.38793337 -0.31313333 0.77000004 1.7584516e-38
0.39091718 -0.31435335 0.77300012 1.602007e-38
0.058549169 -0.30682176 0.77700007 1.1992971e-39
0.061511803 -0.30416813 0.77246153 1.1056539e-39
0.38793337 -0.30580002 0.7700001 1.5765425e-38
0.39279494 -0.30460545 0.77270836 1.6663281e-38
0.062708467 -0.2945683 0.77339292 2.3049216e-39
0.077640146 -0.29275012 0.77428585 1.5302314e-38
0.082564652 -0.29255185 0.77820015 9.3895251e-39
0.38866669 -0.29846668 0.77000004 1.6867093e-38
0.3955749 -0.2951591 0.77211118 1.6202647e-38
0.40285432 -0.29156858 0.77900004 1.5836375e-38
0.066670023 -0.28498873 0.77345949 9.6859684e-39
0.075394757 -0.28402594 0.7747587 1.5491426e-38
0.084117152 -0.28670603 0.77855569 1.2064664e-38
0.39577308 -0.28503734 0.7729286 1.6485717e-38
0.40152332 -0.28607869 0.77700007 1.4825131e-38
0.068997145 -0.2796981 0.77900004 1.3102988e-38
0.072507769 -0.27817214 0.77800012 1.5674388e-38
0.39530459 -0.27489692 0.77236009 1.3537233e-38
0.40034002 -0.27503335 0.77700007 3.9492949e-39
0.36182669 -0.26092002 0.77000004 5.5570172e-40
0.38891113 -0.26400003 0.7700001 1.9554459e-38
0.39413568 -0.26484874 0.77385187 1.9265595e-38
0.29797781 -0.25190005 0.7700001 5.5252484e-39
0.30316001 -0.25138673 0.77000004 1.4726414e-39
0.35859457 -0.25362957 0.77474999 6.4647223e-40
0.36471042 -0.25418514 0.77281672 8.3157815e-40
0.37342107 -0.2519193 0.77000022 1.292206e-39
0.38579714 -0.25451767 0.77148163 1.5863076e-38
0.39290968 -0.25587907 0.7767778 2.0373439e-38
0.28966668 -0.24640001 0.77000004 1.1616666e-38
0.29534423 -0.24580254 0.77029437 7.0032862e-39
0.30428225 -0.24590002 0.77233338 7.3867487e-40
0.31539804 -0.24201837 0.77169245 1.015266e-39
0.3204667 -0.24200001 0.77000004 8.319523e-40
0.35885194 -0.24837765 0.77850002 8.3015163e-40
0.36732927 -0.24594107 0.7757436 9.2484858e-40
0.37451443 -0.24459837 0.7722553 1.2925731e-39
0.38287821 -0.24599858 0.77447838 1.429935e-38
0.27649432 -0.23102193 0.77500004 1.0047545e-38
0.28414956 -0.23370002 0.77900004 7.8326839e-39
0.30754808 -0.23780903 0.77900016 1.0156065e-39
0.31562895 -0.23536639 0.77657378 1.106391e-39
0.32406691 -0.23411456 0.77174473 1.0152646e-39
0.33139676 -0.23138043 0.77057153 1.1071071e-39
0.3687267 -0.23889336 0.77900004 1.1996516e-39
0.37480584 -0.23787153 0.77718741 3.4112705e-39
0.38208097 -0.23963526 0.77900004 2.2029695e-38
0.27377412 -0.22924879 0.77400005 9.3124999e-39
0.31887069 -0.2283583 0.77900004 1.2893389e-39
0.32529947 -0.22501865 0.77601779 9.2307033e-40
0.33442494 -0.22433747 0.77252841 1.107093e-39
0.34384632 -0.22238964 0.77090502 7.3830492e-40
0.35240477 -0.22034574 0.77900004 6.4825889e-40
0.32643813 -0.21886192 0.77900004 1.015259e-39
0.33519185 -0.21835594 0.7780835 9.2485418e-40
0.34463939 -0.21804649 0.77629018 7.3936991e-40
0.35047048 -0.21932097 0.778 5.5606606e-40
-0.03154048 -0.32140762 0.78850007 2.1226995e-39
-0.025254289 -0.32074526 0.78550005 2.0305123e-39
-0.014955239 -0.3207286 0.78500003 1.5673649e-39
-0.0052266675 -0.32032001 0.78400004 1.5673762e-39
0.005226667 -0.32032001 0.78400004 1.5695314e-39
0.39922765 -0.3207286 0.78500003 1.6571788e-38
0.40475434 -0.32145336 0.78800005 1.6756552e-38
-0.031560004 -0.31710288 0.78900003 2.2145476e-39
-0.024506044 -0.31518269 0.78779244 1.7528352e-39
-0.015044884 -0.31499112 0.78721267 1.2914969e-39
-0.0056082131 -0.31621256 0.78626662 1.4769658e-39
0.0055304351 -0.31537455 0.7860868 1.6617242e-39
0.014145357 -0.31414446 0.78187507 1.4769644e-39
0.024776511 -0.31168136 0.78044444 9.2485699e-40
0.034327075 -0.31199539 0.78114283 1.3375248e-38
0.045029145 -0.31148514 0.78020012 8.9430223e-39
0.3981638 -0.31730744 0.78319997 1.6479605e-38
0.40425339 -0.31827012 0.78780007 1.6478892e-38
-0.023359634 -0.30648485 0.7889998 1.2922158e-39
-0.01402397 -0.3090221 0.78883338 1.0167051e-39
0.0076149451 -0.30575415 0.7876153 1.7524793e-39
0.014928142 -0.30458742 0.78387499 1.4758854e-39
0.024553642 -0.30480227 0.7835592 8.319579e-40
0.035208747 -0.30507794 0.78484225 1.8164728e-38
0.045320399 -0.30511504 0.78313363 9.4951129e-39
0.05438887 -0.30448803 0.78180009 4.1470181e-39
0.0092676198 -0.29931906 0.78900003 1.4755463e-39
0.015120625 -0.29588926 0.78825706 1.3829793e-39
0.023662029 -0.29745498 0.78870815 8.3197052e-40
0.035734605 -0.29856762 0.78899986 1.8249354e-38
0.045547042 -0.29678255 0.78799999 1.0975646e-38
0.054521084 -0.29514614 0.78546268 5.2479706e-39
0.060303677 -0.29406917 0.78171438 8.3086769e-40
0.40440574 -0.29418096 0.78200006 1.6018611e-38
0.057008915 -0.28826475 0.7876429 1.6591892e-39
0.063020766 -0.28416213 0.78427589 1.4776959e-39
0.078795768 -0.28185612 0.78133339 1.7150945e-38
0.084422216 -0.282451 0.78284627 1.6129902e-38
0.40475053 -0.28399241 0.78266668 1.0865032e-38
0.067284212 -0.27509749 0.78474188 8.4888895e-39
0.075301439 -0.27396169 0.78353482 1.6504865e-38
0.085065097 -0.27535468 0.78751141 1.8530259e-38
0.091470718 -0.27272457 0.78725004 1.2340145e-38
0.40390968 -0.27332595 0.78200006 1.5615636e-39
0.069087148 -0.26959193 0.78850007 1.4480526e-38
0.074354097 -0.2688747 0.78860009 1.613753e-38
0.096290216 -0.26890409 0.78900009 8.9372364e-39
0.40387771 -0.26517069 0.78372735 4.5028302e-39
0.39706075 -0.25349709 0.78276199 1.972767e-38
0.40323374 -0.25507975 0.7846669 6.6261869e-39
0.30311811 -0.24055812 0.78200006 2.795072e-40
0.35972002 -0.24800573 0.78200006 7.3867627e-40
0.36369684 -0.2437091 0.78372979 9.2306052e-40
0.38782248 -0.24355924 0.78160012 2.1572349e-38
0.39460379 -0.24486476 0.78369242 2.00983e-38
0.40337735 -0.2457239 0.78680784 7.9205313e-39
0.26506072 -0.23072001 0.7840001 9.5844163e-39
0.27481717 -0.23013145 0.78200006 8.2054391e-39
0.28513002 -0.23152623 0.78168416 2.21347e-39
0.29556322 -0.23378327 0.78264701 1.4747938e-39
0.30464014 -0.23426233 0.78225553 1.0145317e-39
0.31165525 -0.23058 0.78100002 1.0152646e-39
0.3651821 -0.23513998 0.78550816 9.2342066e-40
0.37433639 -0.23326339 0.78268749 5.8112072e-39
0.38528934 -0.23443529 0.78576189 2.0282697e-38
0.39339188 -0.235829 0.78637826 1.6593442e-38
0.40051144 -0.23970573 0.78900003 1.5130877e-38
0.25924286 -0.2254286 0.78900003 6.8225243e-39
0.26427588 -0.22464477 0.7829299 5.2555503e-39
0.27518401 -0.22445667 0.78417778 1.8450168e-39
0.28492638 -0.22485946 0.78556007 8.2943697e-40
0.2951245 -0.22519585 0.78502125 1.0145443e-39
0.30521345 -0.22493105 0.78465307 1.0148988e-39
0.31513038 -0.22474064 0.78301895 1.198581e-39
0.32084978 -0.2223255 0.78075004 1.1060239e-39
0.35843146 -0.22317432 0.78900003 7.4045732e-40
0.36669075 -0.22732489 0.78821725 1.1077965e-39
0.37435734 -0.2277562 0.78759992 9.4046885e-39
0.38458118 -0.22918573 0.78900003 1.9266035e-38
0.26537707 -0.21839559 0.78754538 7.3722873e-40
0.27398336 -0.21918462 0.7881667 5.5462973e-40
0.28599492 -0.21724007 0.78865379 8.3015023e-40
0.29531983 -0.21583691 0.78831095 1.1067357e-39
0.30527586 -0.21566959 0.78832579 1.0156205e-39
0.31520048 -0.21493636 0.7869997 1.1071029e-39
0.32477218 -0.21500196 0.78346157 1.0141856e-39
0.33512464 -0.21343167 0.7824707 9.237948e-40
0.34501138 -0.21300788 0.78242862 8.3085789e-40
0.35337052 -0.21406876 0.78486967 8.3193548e-40
0.29801661 -0.20904744 0.78900003 1.1074448e-39
0.30482954 -0.20964858 0.78900003 1.2904095e-39
0.31683135 -0.20866735 0.78870004 8.3196491e-40
0.32537279 -0.2075673 0.78720003 9.227158e-40
0.33490679 -0.20831615 0.78669572 1.1074532e-39
0.34579468 -0.20732123 0.78709084 1.0148932e-39
0.35260522 -0.20704263 0.78636378 5.5462412e-40
-0.052381039 -0.32338774 0.79708338 2.5822413e-39
-0.045418095 -0.3222267 0.79354548 2.4886136e-39
-0.036698099 -0.32178098 0.79100007 2.1223408e-39
0.41368097 -0.32107717 0.79700005 1.6295571e-38
-0.052150901 -0.31568649 0.79744452 1.9393887e-39
-0.045143947 -0.31496209 0.79458129 2.1216233e-39
-0.036025248 -0.31420368 0.79116243 2.0301578e-39
-0.029380001 -0.31188002 0.79100001 1.7542785e-39
-0.0043335715 -0.31207207 0.79125011 1.5695061e-39
0.0015066669 -0.31263337 0.79100001 1.937595e-39
0.40853816 -0.317361 0.79585719 1.6385614e-38
0.41136846 -0.31701037 0.79714286 1.6018983e-38
-0.051300004 -0.30818003 0.79800004 1.9372363e-39
-0.044510644 -0.3051613 0.796 1.9368789e-39
-0.034639295 -0.30513152 0.79365212 1.5698971e-39
-0.026349051 -0.30327439 0.79200017 1.3844156e-39
-0.015102315 -0.30436206 0.79302269 1.1078273e-39
-0.0054040039 -0.30511177 0.79498309 1.66172e-39
0.0027662439 -0.30463547 0.79270375 1.9365132e-39
-0.050920002 -0.29488 0.79800004 1.7539268e-39
-0.043477401 -0.29632893 0.79765397 1.9365174e-39
-0.034930136 -0.29538292 0.79730999 1.5684524e-39
-0.024868963 -0.2953437 0.79570383 1.1071001e-39
-0.016080996 -0.29736054 0.79747832 1.10747e-39
-0.0034488649 -0.29800874 0.79776931 1.7535625e-39
0.0051564039 -0.29470709 0.79316318 1.6602766e-39
0.014776925 -0.29096055 0.79100001 1.1078273e-39
0.02571423 -0.29311562 0.7911877 3.3194729e-39
0.034860492 -0.29402682 0.79225713 1.7701934e-38
0.044080954 -0.29252553 0.79203999 6.9222715e-39
0.050473336 -0.29003334 0.79100001 1.7850704e-38
-0.032376003 -0.28895202 0.79800004 1.2918514e-39
-0.026904002 -0.28793868 0.7980001 1.1074658e-39
0.0069826455 -0.28511202 0.7955001 1.4762455e-39
0.015091793 -0.2844809 0.79233325 1.2918486e-39
0.024984527 -0.28502417 0.79482675 4.8903691e-39
0.034916781 -0.28615698 0.79700011 1.6868936e-38
0.044786248 -0.28617871 0.79706144 1.1436993e-38
0.054860543 -0.28441638 0.79491836 4.1430678e-39
0.061473813 -0.28134763 0.792 8.322802e-40
0.0082749873 -0.27589297 0.79757899 1.0156303e-39
0.015088896 -0.2756584 0.79704899 1.107463e-39
0.022228446 -0.27731416 0.79746675 6.4758626e-40
0.057788234 -0.27789992 0.7974546 1.1092623e-39
0.063359894 -0.27478716 0.79468006 1.8468231e-39
0.079100005 -0.27044669 0.79100001 1.8258379e-38
0.085148193 -0.2709671 0.79119998 1.8993777e-38
0.091153339 -0.27044669 0.79100001 1.7709425e-38
0.012160001 -0.26980001 0.79800004 1.197488e-39
0.06714344 -0.26690355 0.79516679 9.1360666e-39
0.074869938 -0.26415884 0.79405874 1.356255e-38
0.085130043 -0.26527235 0.79517657 1.807471e-38
0.094760075 -0.26455912 0.79500008 1.4193119e-38
0.1011906 -0.26300991 0.79587501 1.0142245e-38
0.075240009 -0.25916004 0.79800004 1.8415318e-39
0.085120007 -0.25916004 0.79800004 1.098183e-38
0.098800004 -0.25840002 0.79800004 7.65085e-39
0.10446609 -0.2538116 0.797912 1.0596037e-38
0.11220288 -0.25163397 0.79783332 1.4187334e-38
0.40906003 -0.25538 0.79100001 9.2554362e-41
0.41160479 -0.25376004 0.79300004 1.8474859e-40
0.10488001 -0.24814001 0.79799998 8.6603062e-39
0.11476 -0.24852002 0.79800004 1.4464276e-38
0.3608467 -0.24031335 0.79100001 6.4754282e-40
0.4076328 -0.24242857 0.79436368 4.3238353e-39
0.41168556 -0.2432503 0.79520005 6.4392607e-40
0.25612003 -0.23028001 0.79800004 9.6816299e-39
0.36162871 -0.23479064 0.79271436 8.3156694e-40
0.39700001 -0.23139144 0.79400003 1.7152723e-38
0.40436974 -0.23867451 0.79660004 1.474804e-38
0.24244002 -0.22116001 0.79800004 4.6172644e-40
0.2551223 -0.22457078 0.79569399 4.3332352e-39
0.35934001 -0.22072668 0.79100001 8.3265855e-40
0.36500311 -0.22379099 0.79274189 1.1077993e-39
0.37542173 -0.22288711 0.79374093 1.7336377e-38
0.38542229 -0.22462395 0.7939387 1.7331723e-38
0.39334074 -0.22603412 0.79378265 1.6966183e-38
0.25752077 -0.21581215 0.79544121 7.3758746e-40
0.26458353 -0.2133258 0.79214293 4.6208798e-40
0.2751815 -0.21442667 0.79141873 7.3794759e-40
0.28397706 -0.2128782 0.79107428 8.3051877e-40
0.29274535 -0.21108404 0.79099995 1.2900494e-39
0.30610448 -0.21018001 0.79100007 1.3822394e-39
0.31188002 -0.21018001 0.79100001 1.1060155e-39
0.35934001 -0.21846667 0.79100001 9.2521292e-40
0.36501023 -0.2175763 0.79630011 3.3154778e-39
0.37443015 -0.21827736 0.7974667 1.8443471e-38
0.38565883 -0.21849506 0.79741186 1.6501977e-38
0.25916001 -0.20748001 0.79800004 7.3757905e-40
0.26551947 -0.20601889 0.79677296 5.53192e-40
0.27453157 -0.20478736 0.79383314 6.4645822e-40
0.28464976 -0.20461343 0.7927959 8.3086349e-40
0.2947098 -0.20417735 0.79185104 1.0145485e-39
0.30509722 -0.20467553 0.79262775 1.015266e-39
0.31465563 -0.20414969 0.79255545 1.1989384e-39
0.32448712 -0.20264955 0.79203445 1.1067469e-39
0.33497798 -0.20324785 0.79262507 1.0145527e-39
0.34490031 -0.20304365 0.79390323 1.2896906e-39
0.35131335 -0.20215525 0.79500008 9.1946759e-40
0.26861778 -0.19819112 0.79799998 6.4573655e-40
0.27479866 -0.19508946 0.79707164 6.4647083e-40
0.28451604 -0.19630547 0.79707521 7.3938533e-40
0.29556346 -0.19680423 0.79643351 9.2307734e-40
0.30486876 -0.19558993 0.79594874 1.0159848e-39
0.31558815 -0.19527368 0.79586381 1.1070987e-39
0.32496199 -0.19564813 0.79600006 1.6588319e-39
0.33400494 -0.19799241 0.79693341 9.2307453e-40
0.34564802 -0.19927202 0.79799998 9.2233745e-40
0.35180658 -0.19857161 0.79783338 4.9803829e-39
0.27588004 -0.18924001 0.79800004 7.379574e-40
-0.060792387 -0.33012575 0.80800003 2.9514106e-39
-0.059253339 -0.33012575 0.80800003 2.8592066e-39
-0.056746509 -0.32513291 0.80516672 2.4904115e-39
0.41523811 -0.32076192 0.80000001 1.6111896e-38
-0.054770008 -0.31391957 0.80150008 1.8475504e-39
0.41388363 -0.3177143 0.80000007 1.5744188e-38
-0.05181225 -0.30552277 0.80171436 1.9368747e-39
-0.049015876 -0.30146036 0.80000007 2.211312e-39
-0.051047623 -0.29942858 0.80000001 1.9368789e-39
-0.045883551 -0.29327813 0.80158609 1.6613711e-39
-0.037333336 -0.29028577 0.80000007 1.8435973e-39
-0.021333333 -0.29028574 0.80000001 1.1071043e-39
-0.014711938 -0.29266435 0.80179995 1.4758966e-39
-0.0059145521 -0.29385209 0.8017208 1.845391e-39
0.0015238096 -0.29028574 0.80000001 1.752838e-39
-0.050019052 -0.28241527 0.80800003 1.2014789e-39
-0.044184681 -0.28520557 0.80560976 1.5688167e-39
-0.035465356 -0.28467402 0.80280948 1.3833366e-39
-0.024594145 -0.28384507 0.80205005 1.1070987e-39
-0.015102461 -0.28551999 0.80706984 1.3844156e-39
-0.0043772385 -0.28541988 0.8052001 1.7539128e-39
0.001778032 -0.28428397 0.8002668 1.4769728e-39
0.028952383 -0.28114289 0.80000001 1.7897516e-38
0.035047624 -0.28114292 0.80000007 1.4933533e-38
0.044952385 -0.28114292 0.80000007 1.2632296e-38
0.052571431 -0.28114289 0.80000001 7.0803071e-39
-0.042016003 -0.27872154 0.80800003 1.3844254e-39
-0.034235038 -0.27689433 0.80650008 1.1071043e-39
-0.025641644 -0.27745965 0.80579317 1.0149044e-39
-0.01739124 -0.27902937 0.80800003 1.2915165e-39
-0.0014792676 -0.27604604 0.80738461 1.4780406e-39
0.0036842022 -0.27445543 0.80300003 1.2929403e-39
0.01721905 -0.27078098 0.80000001 1.1074602e-39
0.026030965 -0.27398098 0.80218613 1.0699428e-38
0.03536256 -0.27527261 0.80446172 1.2533225e-38
0.044966776 -0.27523258 0.80436671 1.355712e-38
0.054270647 -0.27402827 0.80408508 5.4323633e-39
0.060818337 -0.27225265 0.80075008 1.0159638e-39
-0.00076952385 -0.26779431 0.80800003 1.5695215e-39
0.0055335527 -0.26467064 0.80446166 1.0163422e-39
0.015188657 -0.26524761 0.80426091 1.3833296e-39
0.024716867 -0.26646474 0.80658823 8.9451789e-39
0.033732109 -0.26765132 0.80757135 1.5580001e-38
0.045182046 -0.2681241 0.80800003 1.6509905e-38
0.055992194 -0.26719943 0.80759984 2.7626669e-39
0.064428106 -0.26435781 0.80424386 1.387668e-39
0.0069178576 -0.25851169 0.80725008 1.1071099e-39
0.01192762 -0.25798291 0.80800003 1.4755337e-39
0.067768954 -0.25648403 0.80679989 5.5411363e-39
0.074718729 -0.2542375 0.80399978 1.429252e-38
0.084910549 -0.25430325 0.80399972 1.6691767e-38
0.095158905 -0.25518671 0.80477196 1.8439877e-38
0.10092436 -0.25279486 0.80542868 1.436599e-38
0.076913908 -0.2482785 0.80760002 1.7611938e-38
0.084220119 -0.24804319 0.80800003 1.890374e-38
0.095805719 -0.2477867 0.80799997 1.936364e-38
0.10486989 -0.24648036 0.80312508 1.2720489e-38
0.11235166 -0.247033 0.80000013 1.3729239e-38
0.41371429 -0.24152383 0.80000001 3.6842098e-40
0.25523812 -0.23085716 0.80000001 8.5702671e-39
0.40625736 -0.23431367 0.80355555 1.529834e-38
0.41399309 -0.23492432 0.80502051 1.4718847e-39
0.24692644 -0.22337663 0.80000001 2.4007143e-39
0.25117463 -0.22628574 0.80000007 5.805836e-39
0.40349811 -0.22903335 0.80700004 1.8714284e-38
0.23726988 -0.21243988 0.80799991 4.6173205e-40
0.24502522 -0.2150013 0.80584604 3.6987833e-40
0.25308645 -0.21407712 0.80348718 4.6207537e-40
0.36741051 -0.21412669 0.80300009 9.6848529e-39
0.37516204 -0.21334983 0.80511624 1.8072164e-38
0.3834421 -0.2147992 0.80312008 1.5488537e-38
0.23855239 -0.20854096 0.80800003 5.5355353e-40
0.25674286 -0.20535213 0.80485725 6.4538202e-40
0.26226115 -0.20167033 0.80072737 4.6171523e-40
0.35568067 -0.20291875 0.80200005 2.755823e-39
0.36090669 -0.20469335 0.80800003 9.2170827e-39
0.37837005 -0.20879573 0.80750006 1.5302352e-38
0.38168383 -0.20854096 0.80800003 1.5209806e-38
0.19484085 -0.19198342 0.80771422 1.0870113e-38
0.25894478 -0.19661334 0.80800003 6.4537642e-40
0.2641933 -0.19472085 0.80338454 6.4538482e-40
0.27047622 -0.19276193 0.80000007 8.2870829e-40
0.28664106 -0.19162944 0.80022228 5.5573115e-40
0.29441413 -0.19238587 0.80010539 1.1063868e-39
0.30476195 -0.19123811 0.80000007 9.2343467e-40
0.31248984 -0.19167349 0.80000007 1.0149114e-39
0.32740983 -0.19152357 0.80028576 6.9190149e-39
0.33553827 -0.19398841 0.80300015 1.2911368e-39
0.34504041 -0.19528136 0.80349988 2.3042041e-39
0.35306531 -0.19540918 0.80253339 1.3095035e-38
0.18960193 -0.18806669 0.80600011 9.5815282e-39
0.19286351 -0.1874797 0.80733335 6.5391004e-39
0.25932953 -0.18853335 0.80800003 7.3757345e-40
0.2656455 -0.18545488 0.8052609 6.4574916e-40
0.27479345 -0.18476589 0.80326527 7.379532e-40
0.28469762 -0.18491995 0.80344665 9.2270459e-40
0.29504502 -0.18519597 0.80400008 5.437024e-39
0.30462235 -0.18494892 0.80203938 2.0283165e-39
0.31482944 -0.1850654 0.80254936 1.4755224e-39
0.32410595 -0.18568541 0.80374366 6.9190513e-39
0.33109844 -0.18780765 0.80599999 3.4955488e-39
0.26744097 -0.17762689 0.80740005 8.8370547e-39
0.27430147 -0.17703539 0.80733335 1.9314475e-39
0.28395432 -0.17885934 0.80800003 3.1310725e-39
0.2972104 -0.1782237 0.80777782 1.5493578e-38
0.30510595 -0.17784046 0.80638099 4.0544525e-39
0.31502482 -0.17722483 0.80723798 3.1379501e-39
0.32140446 -0.17878604 0.80800003 8.2122998e-39
-0.080582865 -0.33206004 0.8175 2.4900583e-39
-0.074380174 -0.33159781 0.81350011 2.4900527e-39
-0.066078305 -0.33107221 0.8120001 2.583333e-39
-0.080680959 -0.32856858 0.81850004 1.7521332e-39
-0.074417733 -0.32624254 0.8167693 2.1209073e-39
-0.064988554 -0.32491258 0.81457454 2.3982158e-39
-0.059106041 -0.32417908 0.81066668 2.7659123e-39
-0.061915956 -0.3169736 0.81775004 2.1219905e-39
-0.057424318 -0.31503543 0.81428581 2.1223394e-39
-0.054296196 -0.30888796 0.81833339 1.4780588e-39
-0.050142862 -0.28080001 0.81000006 1.5680978e-39
-0.047097147 -0.28154859 0.81066674 1.4766267e-39
-0.011388334 -0.28163832 0.81075001 1.2951151e-39
-0.0073891161 -0.28154859 0.81057155 1.4791434e-39
-0.05058381 -0.27520549 0.81400001 1.4762497e-39
-0.045171037 -0.27475762 0.81302553 1.3840611e-39
-0.035657842 -0.27290842 0.81072748 1.0156219e-39
-0.024206748 -0.27298948 0.81125015 1.1078259e-39
-0.01463272 -0.27515817 0.81414568 1.4766127e-39
-0.0058882232 -0.27485794 0.81296676 1.7539156e-39
-0.050514288 -0.26889241 0.81600004 1.6602892e-39
-0.044984411 -0.26512909 0.81595343 1.5673776e-39
-0.034891963 -0.26517698 0.8141607 1.1070987e-39
-0.024980834 -0.26531157 0.81530422 1.1074672e-39
-0.015826916 -0.26743332 0.81744456 1.5684552e-39
-0.0041850694 -0.26600978 0.81432265 1.6613598e-39
0.018537143 -0.26106381 0.81100005 1.2007586e-39
0.025427451 -0.26224831 0.81200022 1.2175262e-38
0.035496898 -0.26351038 0.81251276 9.3081965e-39
0.044580176 -0.26406214 0.81223685 1.46631e-38
0.054196991 -0.26316154 0.81109691 4.7012947e-39
0.061714292 -0.26151431 0.81000006 1.1067315e-39
-0.042885579 -0.25875798 0.81871444 1.1071127e-39
-0.035227258 -0.25795472 0.81852406 1.107456e-39
-0.026854292 -0.25907144 0.81900012 9.2308294e-40
-0.0014922348 -0.25486341 0.81453854 1.2915025e-39
0.0042506675 -0.25446913 0.81189996 9.2307453e-40
0.015129801 -0.25445336 0.81308883 1.0170764e-39
0.024818484 -0.25516349 0.81435704 1.0150569e-38
0.0349801 -0.25493559 0.81682026 9.674084e-39
0.045545474 -0.25706011 0.81674087 1.8993045e-38
0.055510834 -0.25574023 0.81545657 2.213812e-39
0.063732356 -0.25420874 0.81178123 1.2936675e-39
-0.0013428573 -0.24580607 0.81654549 1.1074714e-39
0.0047133989 -0.24475756 0.81539518 1.0149044e-39
0.012954594 -0.24633896 0.81725013 1.383701e-39
0.025360547 -0.24882929 0.81757152 9.2282735e-39
0.034615364 -0.2468413 0.8187393 7.3695351e-39
0.059913337 -0.24976858 0.81700003 1.1993069e-39
0.066289172 -0.24674284 0.8162415 2.3154005e-39
0.074628368 -0.24490413 0.81502378 1.5034792e-38
0.085134409 -0.24419931 0.8154999 1.3100141e-38
0.094522826 -0.24383698 0.81384993 1.8813347e-38
0.10302943 -0.2420574 0.81531596 1.5763335e-38
0.0041600005 -0.23855001 0.81900018 8.3124464e-40
0.087844133 -0.23884258 0.81866682 3.3202086e-39
0.094876818 -0.23785417 0.81852967 7.9332509e-39
0.10554291 -0.23580445 0.8174572 5.6236279e-39
0.11443447 -0.23228019 0.81452179 4.5197341e-39
0.12518439 -0.23098283 0.81407702 1.3462019e-38
0.13425325 -0.23100698 0.8167001 1.2165509e-38
0.40700004 -0.23024572 0.81400001 1.8254749e-38
0.4186286 -0.23024572 0.81400001 1.8438986e-40
0.42147145 -0.23052859 0.81500006 3.6913705e-40
0.11579262 -0.22739743 0.81757158 1.1613408e-38
0.12466773 -0.22657463 0.81664538 8.4831386e-39
0.13489383 -0.22719708 0.81871444 1.1246466e-38
0.14190194 -0.22532764 0.81866682 1.1525216e-38
0.40535772 -0.22430597 0.81471437 1.7791974e-38
0.41450834 -0.22521681 0.81365889 1.0500556e-38
0.42147145 -0.2289762 0.81500006 3.6877972e-40
0.23392878 -0.21039696 0.81280005 6.461149e-40
0.36697033 -0.21152878 0.81120008 7.8431137e-39
0.38708332 -0.21303214 0.81171435 1.5212317e-38
0.40878358 -0.21812806 0.81757152 1.4470069e-38
0.41188973 -0.2174232 0.81535727 1.6223938e-38
0.21875095 -0.20091002 0.81450003 4.6029011e-40
0.22603658 -0.2031488 0.81400007 5.5355493e-40
0.2350543 -0.20474117 0.81288868 5.5391226e-40
0.24533829 -0.20481414 0.81195545 3.6988674e-40
0.25237235 -0.20357956 0.81115806 4.6279844e-40
0.36717391 -0.20576864 0.81508344 1.5676169e-38
0.37461081 -0.20562762 0.81406999 1.6319017e-38
0.38086575 -0.20609048 0.81200004 1.466129e-38
0.19847757 -0.19428983 0.81000006 1.1240328e-38
0.20547149 -0.19490591 0.81412494 6.2642834e-39
0.21470831 -0.19520703 0.81531125 1.1985656e-39
0.22455999 -0.19661009 0.81665528 6.4575056e-40
0.23493056 -0.19822609 0.81681842 4.6172504e-40
0.2458567 -0.19645262 0.81723547 5.5355213e-40
0.25505888 -0.19500759 0.81358498 5.5391507e-40
0.33842164 -0.191214 0.81066674 8.308747e-40
0.34463957 -0.19178215 0.81123096 2.119087e-39
0.35271415 -0.19130874 0.81216669 1.4390101e-38
0.18993334 -0.18373144 0.81400001 3.6985872e-40
0.1954558 -0.18368232 0.81359392 7.3831333e-40
0.20429678 -0.18690705 0.81585193 7.3759447e-40
0.21227251 -0.18800505 0.81814301 8.2978169e-40
0.24882002 -0.18954001 0.81900007 4.6169421e-40
0.25597775 -0.18560803 0.8150208 5.5318219e-40
0.26240435 -0.18160987 0.81145459 2.0229075e-39
0.32803357 -0.18124345 0.81119996 3.0381762e-39
0.33549738 -0.18515514 0.81400007 1.0134667e-39
0.3451381 -0.18704617 0.81515145 3.6914658e-39
0.35164487 -0.18577202 0.81427795 1.466309e-38
0.19513336 -0.17893638 0.81759995 9.2127667e-40
0.25751659 -0.17554048 0.81587523 1.1891829e-38
0.26442361 -0.17443578 0.81348705 1.35546e-38
0.2752451 -0.17261089 0.81171447 4.2323614e-39
0.28492987 -0.17446437 0.81077766 1.1801392e-38
0.29434556 -0.17470762 0.81152618 1.1522307e-38
0.30455112 -0.17333506 0.8118518 5.1582819e-39
0.31479508 -0.17329226 0.81262505 4.4304854e-39
0.32523975 -0.17481209 0.81561774 2.9510211e-39
0.33199906 -0.17832923 0.81766671 1.1056819e-39
0.25900862 -0.16860223 0.81833339 4.7013984e-39
0.26558748 -0.16623741 0.81651229 6.9089633e-39
0.27486315 -0.1660711 0.81562513 8.4805532e-39
0.28500664 -0.16626896 0.81623673 1.2625398e-38
0.29493815 -0.1667732 0.81673533 1.2630452e-38
0.30465993 -0.16719989 0.81612128 1.9336153e-39
0.31399083 -0.16859983 0.81635737 5.8119891e-39
-0.084363498 -0.33349857 0.82611114 2.4904129e-39
-0.084398888 -0.32461438 0.82627285 1.7521205e-39
-0.076559529 -0.3217532 0.82166672 1.568095e-39
-0.068807617 -0.32136288 0.82100004 2.0287172e-39
-0.083905071 -0.31520113 0.82818764 1.475521e-39
-0.075068764 -0.31493503 0.82575488 1.568451e-39
-0.065499216 -0.3147569 0.82473904 2.121266e-39
-0.058240637 -0.31182766 0.82266676 2.1209087e-39
-0.082900003 -0.30870384 0.82900012 1.2000005e-39
-0.0738644 -0.30737025 0.82860011 1.3836897e-39
-0.065240964 -0.30778959 0.82866687 1.7532037e-39
-0.055838954 -0.30649111 0.82690495 1.8457609e-39
-0.051319052 -0.29607144 0.82900006 1.3858632e-39
-0.050947621 -0.28922573 0.82300001 1.3855128e-39
-0.048478097 -0.26037431 0.82100004 1.4751833e-39
