# .PCD v0.7 - Point Cloud Data file format
VERSION 0.7
FIELDS x y z rgb
SIZE 4 4 4 4
TYPE F F F F
COUNT 1 1 1 1
WIDTH 991
HEIGHT 1
VIEWPOINT 0 0 0 1 0 0 0
POINTS 991
DATA ascii
0.11719387 -0.018275557 0.97577786 2.3418052e-38
0.12420668 -0.014052311 0.97384638 2.3418052e-38
0.13260858 -0.011340001 0.97200006 2.3418052e-38
0.24918795 -0.015747938 0.97266674 2.3418052e-38
0.25468284 -0.015807454 0.97617656 2.3418052e-38
0.2657502 -0.013637619 0.97430021 2.3418052e-38
0.27528065 -0.014532749 0.97246182 2.3418052e-38
0.28049144 -0.018514287 0.97200006 2.3418052e-38
0.12645967 -0.005977347 0.97635728 2.3418052e-38
0.13520986 -0.0063879364 0.97388893 2.3418052e-38
0.14501199 -0.0043984922 0.97241676 2.3418052e-38
0.15428574 -0.0033942866 0.972 2.3418052e-38
0.16076574 -0.0015428573 0.97200006 2.3418052e-38
0.25452015 -0.0049744598 0.97372741 2.3418052e-38
0.2728599 -0.0053848261 0.97473347 2.3418052e-38
0.14811429 0.00092571432 0.97200006 2.3418052e-38
0.15469086 0.0018531429 0.9726001 2.3418052e-38
0.16509466 0.0027851195 0.97387511 2.3418052e-38
0.17125715 0.0046285717 0.97200006 2.3418052e-38
0.24725077 0.0027846261 0.97442871 2.3418052e-38
0.25458828 0.0047049457 0.97288471 2.3418052e-38
0.26392055 0.0033126534 0.97428584 2.3418052e-38
0.25588584 0.013586928 0.97445464 2.3418052e-38
0.24901716 0.028697144 0.97200006 2.3418052e-38
0.25455761 0.021368098 0.97550005 2.3418052e-38
0.24811049 0.034278098 0.97280008 2.3418052e-38
0.2383981 0.054729529 0.97400004 2.3418052e-38
0.22982763 0.069785722 0.97700006 2.3418052e-38
0.23438859 0.064093344 0.97533339 2.3418052e-38
0.228587 0.076609217 0.97700012 2.3418052e-38
0.22796668 0.081881911 0.97700006 2.3418052e-38
0.069785722 0.093047619 0.97700006 2.3418052e-38
0.22301742 0.094706945 0.97628582 2.3418052e-38
-0.060480956 0.10793525 0.97700006 2.3418052e-38
-0.04163881 0.10723738 0.97700012 2.3418052e-38
-0.035203021 0.10715985 0.97700018 2.3418052e-38
-0.024192382 0.10793525 0.97700006 2.3418052e-38
-0.0061411434 0.10626038 0.97700006 2.3418052e-38
0.015404552 0.10803863 0.97700012 2.3418052e-38
0.021400955 0.10886572 0.97700006 2.3418052e-38
0.044197623 0.10467858 0.97700006 2.3418052e-38
0.056293812 0.10653952 0.97700012 2.3418052e-38
0.064300798 0.10641709 0.97700012 2.3418052e-38
0.075368583 0.10747001 0.97700018 2.3418052e-38
0.083184578 0.10700478 0.97700018 2.3418052e-38
0.099560961 0.10886572 0.97700006 2.3418052e-38
0.10328287 0.10886572 0.97700012 2.3418052e-38
0.12375334 0.10700476 0.97700012 2.3418052e-38
0.14649831 0.10803863 0.97700012 2.3418052e-38
0.20842668 0.10886572 0.97700006 2.3418052e-38
0.2162848 0.10681566 0.97528583 2.3418052e-38
0.22052287 0.10235239 0.97700006 2.3418052e-38
0.24552648 0.10649619 0.97611123 2.3418052e-38
-0.06420286 0.11597119 0.97700018 2.3418052e-38
-0.056759052 0.11724001 0.97700006 2.3418052e-38
-0.043965004 0.11514644 0.97699994 2.3418052e-38
-0.03442762 0.11444857 0.97699988 2.3418052e-38
-0.02512286 0.11556516 0.97700024 2.3418052e-38
-0.019540001 0.11724001 0.97700006 2.3418052e-38
-0.0083742859 0.11072668 0.97700006 2.3418052e-38
0.0074438099 0.11817048 0.97700006 2.3418052e-38
0.014885811 0.11443666 0.97689986 2.3418052e-38
0.021932656 0.11471443 0.97700012 2.3418052e-38
0.038728889 0.11804762 0.97600007 2.3418052e-38
0.044552326 0.11628906 0.97683346 2.3418052e-38
0.055321038 0.11487152 0.977 2.3418052e-38
0.065107241 0.11440248 0.97659987 2.3418052e-38
0.07507883 0.11472899 0.97588879 2.3418052e-38
0.082812384 0.11444858 0.97700024 2.3418052e-38
0.09713468 0.11563104 0.97682369 2.3418052e-38
0.10433144 0.11496274 0.97685724 2.3418052e-38
0.11503112 0.11750922 0.97666675 2.3418052e-38
0.12393945 0.11537906 0.97700006 2.3418052e-38
0.13864096 0.11724001 0.97700006 2.3418052e-38
0.14530472 0.11520786 0.97606254 2.3418052e-38
0.15315638 0.11575124 0.97700018 2.3418052e-38
0.16756842 0.11772459 0.97640008 2.3418052e-38
0.17502441 0.11557963 0.97627574 2.3418052e-38
0.18303798 0.11684123 0.97700012 2.3418052e-38
0.20732969 0.11479695 0.9768002 2.3418052e-38
0.2127151 0.11438918 0.97400016 2.3418052e-38
0.23752023 0.11655738 0.97325003 2.3418052e-38
0.24461184 0.11548243 0.97700012 2.3418052e-38
-0.080951437 0.12747525 0.97700012 2.3418052e-38
-0.075501502 0.12760818 0.97700024 2.3418052e-38
-0.065443493 0.12600198 0.97699994 2.3418052e-38
-0.054632246 0.126146 0.977 2.3418052e-38
-0.045293175 0.12483389 0.97699976 2.3418052e-38
-0.034141321 0.12497012 0.97699988 2.3418052e-38
-0.024994517 0.12484424 0.97699982 2.3418052e-38
-0.014969666 0.12569129 0.97548175 2.3418052e-38
-0.0048872875 0.12578477 0.97582626 2.3418052e-38
0.0047707716 0.12464355 0.97544849 2.3418052e-38
0.014862963 0.12444821 0.97516674 2.3418052e-38
0.02429577 0.12644139 0.97700012 2.3418052e-38
0.035540894 0.1250367 0.97568768 2.3418052e-38
0.045645423 0.12462907 0.97534466 2.3418052e-38
0.054634631 0.1252391 0.97660887 2.3418052e-38
0.065025009 0.12447801 0.9754166 2.3418052e-38
0.075486742 0.12487757 0.97592854 2.3418052e-38
0.084596343 0.12576039 0.97528005 2.3418052e-38
0.094891727 0.12403464 0.97520685 2.3418052e-38
0.10477182 0.12324067 0.97431839 2.3418052e-38
0.11504048 0.12271261 0.97413665 2.3418052e-38
0.1249023 0.12304031 0.97580016 2.3418052e-38
0.13481097 0.12325355 0.97621447 2.3418052e-38
0.14486513 0.12218145 0.97507155 2.3418052e-38
0.15518706 0.12225462 0.97641194 2.3418052e-38
0.1651856 0.12207995 0.97553355 2.3418052e-38
0.17521185 0.12201121 0.97425002 2.3418052e-38
0.18424867 0.12210756 0.97625011 2.3418052e-38
0.19441232 0.12406876 0.97418201 2.3418052e-38
0.20623396 0.12345196 0.9757694 2.3418052e-38
0.21127905 0.12232001 0.97300005 2.3418052e-38
0.23753832 0.12237944 0.97200006 2.3418052e-38
0.24389137 0.12190141 0.97572738 2.3418052e-38
0.25169381 0.12235763 0.97700006 2.3418052e-38
-0.095763333 0.13620977 0.97625011 2.3418052e-38
-0.083137222 0.13531789 0.9757694 2.3418052e-38
-0.075464994 0.13503706 0.97595233 2.3418052e-38
-0.065920644 0.13307664 0.97488904 2.3418052e-38
-0.044828858 0.13264321 0.97476476 2.3418052e-38
-0.035242788 0.13261335 0.97584635 2.3418052e-38
-0.024269527 0.13231574 0.97383344 2.3418052e-38
-0.015742145 0.13125357 0.97225004 2.3418052e-38
-0.0039709527 0.13259953 0.97364295 2.3418052e-38
0.0041453131 0.13347656 0.97363162 2.3418052e-38
0.015191811 0.13134687 0.9726001 2.3418052e-38
0.025020001 0.13158572 0.97300005 2.3418052e-38
0.0364554 0.13191731 0.9731667 2.3418052e-38
0.045117367 0.13221686 0.97292316 2.3418052e-38
0.053963576 0.13132073 0.97275001 2.3418052e-38
0.063874289 0.13052572 0.97200006 2.3418052e-38
0.075107813 0.13074058 0.97360003 2.3418052e-38
0.08146286 0.13052572 0.97200006 2.3418052e-38
-0.12501614 0.16449493 0.97699988 2.3418052e-38
0.29559457 -0.04467389 0.98365408 2.3418052e-38
0.30051717 -0.044000953 0.98300004 2.3418052e-38
0.27949381 -0.031783335 0.98150003 2.3418052e-38
0.28609079 -0.033142917 0.98368746 2.3418052e-38
0.29337299 -0.035339881 0.98612493 2.3418052e-38
0.098533347 -0.023457145 0.98533338 2.3418052e-38
0.10508825 -0.023284769 0.98264706 2.3418052e-38
0.11181333 -0.023706669 0.98000002 2.3418052e-38
0.27906668 -0.028933335 0.98000002 2.3418052e-38
0.28428039 -0.027831048 0.9806 2.3418052e-38
-0.081614293 -0.019700002 0.98500007 2.3418052e-38
0.10660263 -0.016032144 0.9855001 2.3418052e-38
0.11425939 -0.013931512 0.98095632 2.3418052e-38
0.12040001 -0.011200001 0.98000002 2.3418052e-38
0.25687408 -0.014 0.97999996 2.3418052e-38
0.26185191 -0.012340741 0.97999996 2.3418052e-38
0.11671176 -0.0078015877 0.98299998 2.3418052e-38
0.12139478 -0.0065357154 0.98049998 2.3418052e-38
0.23821501 -0.0018740477 0.98475003 2.3418052e-38
0.24238795 -0.00093587313 0.98266673 2.3418052e-38
0.25853336 -0.006533334 0.98000002 2.3418052e-38
0.2657665 -0.0046769534 0.98259997 2.3418052e-38
0.27160001 -0.0037333337 0.98000002 2.3418052e-38
0.15785405 0.0051383334 0.98075002 2.3418052e-38
0.16470779 0.0072831502 0.98392314 2.3418052e-38
0.17307049 0.0076899054 0.98439997 2.3418052e-38
0.23957859 0.0018804764 0.98650002 2.3418052e-38
0.24474578 0.0051729195 0.98365211 2.3418052e-38
0.25106668 0.0084000006 0.98000002 2.3418052e-38
0.26663142 0.0012466668 0.98233336 2.3418052e-38
0.1721943 0.010350477 0.98800009 2.3418052e-38
0.24742916 0.011452952 0.98560011 2.3418052e-38
0.2529352 0.015391083 0.98199987 2.3418052e-38
-0.023523811 0.027496722 0.98800004 2.3418052e-38
-0.019760001 0.027287623 0.98800009 2.3418052e-38
0.018505398 0.027914923 0.98800009 2.3418052e-38
0.024464764 0.028228574 0.98799998 2.3418052e-38
0.04987048 0.029169526 0.98800004 2.3418052e-38
0.056457147 0.029169526 0.98800004 2.3418052e-38
0.06523937 0.027914925 0.98800004 2.3418052e-38
0.075679459 0.028900685 0.98800004 2.3418052e-38
0.08327429 0.028699048 0.98800004 2.3418052e-38
0.25207528 0.023455378 0.98500001 2.3418052e-38
-0.04234286 0.03857905 0.98800004 2.3418052e-38
-0.034301996 0.037210394 0.98800004 2.3418052e-38
-0.0254 0.034806099 0.98776025 2.3418052e-38
-0.019748002 0.034792956 0.9874 2.3418052e-38
0.0084685721 0.03857905 0.98800004 2.3418052e-38
0.017071566 0.035756193 0.98800004 2.3418052e-38
0.025576798 0.034900784 0.98800021 2.3418052e-38
0.034914292 0.035904769 0.98800009 2.3418052e-38
0.045434561 0.035084084 0.98800039 2.3418052e-38
0.055494819 0.034801424 0.9876402 2.3418052e-38
0.064806513 0.034748614 0.98620015 2.3418052e-38
0.075269058 0.034811348 0.98790038 2.3418052e-38
0.083932959 0.036508959 0.98800004 2.3418052e-38
0.097153336 0.036932386 0.98799998 2.3418052e-38
0.10444572 0.035157412 0.98800021 2.3418052e-38
0.11009143 0.033874288 0.98800004 2.3418052e-38
0.13549715 0.033874288 0.98800004 2.3418052e-38
0.24958144 0.031780478 0.98150003 2.3418052e-38
-0.073394291 0.048929527 0.98800004 2.3418052e-38
-0.068689525 0.048929527 0.98800004 2.3418052e-38
-0.054010671 0.049494099 0.98800004 2.3418052e-38
-0.044224765 0.04597225 0.98800039 2.3418052e-38
-0.03480896 0.045155816 0.98780042 2.3418052e-38
-0.025392858 0.04514277 0.98750037 2.3418052e-38
-0.019760001 0.045165718 0.98800004 2.3418052e-38
-0.0042083208 0.046669681 0.98736846 2.3418052e-38
0.0048260754 0.045258194 0.986552 2.3418052e-38
0.015018203 0.045050688 0.98555577 2.3418052e-38
0.025340794 0.045048237 0.98550028 2.3418052e-38
0.034710836 0.045029432 0.98503357 2.3418052e-38
0.045028575 0.045028575 0.98500031 2.3418052e-38
0.055364963 0.045042112 0.98533356 2.3418052e-38
0.064742483 0.045038097 0.98520023 2.3418052e-38
0.075218342 0.045131203 0.98725021 2.3418052e-38
0.08551421 0.04510219 0.98670036 2.3418052e-38
0.094910577 0.045102399 0.9867003 2.3418052e-38
0.10451605 0.045265228 0.98693579 2.3418052e-38
0.11180227 0.046448834 0.98800004 2.3418052e-38
0.13581082 0.044224765 0.98800009 2.3418052e-38
0.14559671 0.048239503 0.98800004 2.3418052e-38
0.15379345 0.047988579 0.98800004 2.3418052e-38
0.18724954 0.048929527 0.98800004 2.3418052e-38
0.19289526 0.048526265 0.98800004 2.3418052e-38
0.20481399 0.044224765 0.98800009 2.3418052e-38
0.22623186 0.049063955 0.98800004 2.3418052e-38
0.23402834 0.047719739 0.98800004 2.3418052e-38
0.24480785 0.044936929 0.98776925 2.3418052e-38
-0.092720196 0.058491241 0.9874 2.3418052e-38
-0.073528707 0.055247352 0.98800004 2.3418052e-38
-0.065147117 0.056733891 0.98799998 2.3418052e-38
-0.055516183 0.055516195 0.98800021 2.3418052e-38
-0.045165721 0.055516198 0.98800039 2.3418052e-38
-0.034794327 0.055480417 0.98740017 2.3418052e-38
-0.025363658 0.055419043 0.9863202 2.3418052e-38
-0.014998378 0.055851437 0.98659283 2.3418052e-38
-0.0046981331 0.055419274 0.98632008 2.3418052e-38
0.0046908185 0.055367164 0.98536015 2.3418052e-38
0.015000511 0.055317272 0.98446685 2.3418052e-38
0.025312189 0.055307463 0.98427999 2.3418052e-38
0.034694828 0.055324376 0.98460013 2.3418052e-38
0.045010805 0.055323746 0.98460019 2.3418052e-38
0.055310439 0.055310443 0.98435992 2.3418052e-38
0.064708456 0.05532888 0.98468006 2.3418052e-38
0.075094327 0.055380411 0.98563367 2.3418052e-38
0.085276239 0.055286877 0.98395991 2.3418052e-38
0.094656348 0.055291995 0.98404002 2.3418052e-38
0.10503247 0.055328134 0.98466694 2.3418052e-38
0.11535074 0.055731837 0.98747844 2.3418052e-38
0.12501225 0.057532519 0.98800004 2.3418052e-38
0.13591446 0.055884328 0.98684645 2.3418052e-38
0.1456385 0.055434823 0.98656017 2.3418052e-38
0.15501221 0.056028984 0.98757154 2.3418052e-38
0.16443142 0.057162851 0.98799998 2.3418052e-38
0.17470352 0.05752356 0.98800004 2.3418052e-38
0.18621452 0.055233907 0.98800009 2.3418052e-38
0.19326983 0.055828802 0.987647 2.3418052e-38
0.21547811 0.057398096 0.98800004 2.3418052e-38
0.22458719 0.055440877 0.98668021 2.3418052e-38
0.23462869 0.055564657 0.98757726 2.3418052e-38
0.24084574 0.052479051 0.98400009 2.3418052e-38
-0.094305135 0.064855829 0.98694444 2.3418052e-38
-0.086567618 0.065396197 0.98799998 2.3418052e-38
-0.074884906 0.065266497 0.98788917 2.3418052e-38
-0.064797036 0.06479954 0.98608017 2.3418052e-38
-0.055516191 0.064925723 0.98800021 2.3418052e-38
-0.045121502 0.064855531 0.98696709 2.3418052e-38
-0.034656268 0.064627185 0.98347992 2.3418052e-38
-0.025317067 0.064701676 0.98460007 2.3418052e-38
-0.015005715 0.064711496 0.98473352 2.3418052e-38
-0.0046885712 0.064700767 0.98460013 2.3418052e-38
0.0046878853 0.064695358 0.98452008 2.3418052e-38
0.014989973 0.06464833 0.98380005 2.3418052e-38
0.025304649 0.064664125 0.98404002 2.3418052e-38
0.034649413 0.064617261 0.98331994 2.3418052e-38
0.044932671 0.064590208 0.9828999 2.3418052e-38
0.055235237 0.064597167 0.98299986 2.3418052e-38
0.064597152 0.06459716 0.98299986 2.3418052e-38
0.07489524 0.064597167 0.98299992 2.3418052e-38
0.085193329 0.06459716 0.98299986 2.3418052e-38
0.094555244 0.064597145 0.98299986 2.3418052e-38
0.10499094 0.064680018 0.98426688 2.3418052e-38
0.11532872 0.064695522 0.98452008 2.3418052e-38
0.12474158 0.064712457 0.9848001 2.3418052e-38
0.13501547 0.064694338 0.98450011 2.3418052e-38
0.14553104 0.064782172 0.9858402 2.3418052e-38
0.15505086 0.064836226 0.98668021 2.3418052e-38
0.16500311 0.065018684 0.98639315 2.3418052e-38
0.17536353 0.064648584 0.98700023 2.3418052e-38
0.18486904 0.065009385 0.98785013 2.3418052e-38
0.19506225 0.065088689 0.9873336 2.3418052e-38
0.20522507 0.064645648 0.98685741 2.3418052e-38
0.21490978 0.064751364 0.98540014 2.3418052e-38
0.2245281 0.064902797 0.98546177 2.3418052e-38
0.23272724 0.063741803 0.98511761 2.3418052e-38
-0.10076064 0.078925088 0.98266673 2.3418052e-38
-0.095481269 0.076080315 0.98731834 2.3418052e-38
-0.085398413 0.075586841 0.98767889 2.3418052e-38
-0.075016111 0.075011678 0.98458356 2.3418052e-38
-0.064779051 0.07510706 0.98580027 2.3418052e-38
-0.055510193 0.075268112 0.98790038 2.3418052e-38
-0.045024339 0.07502915 0.98477799 2.3418052e-38
-0.034620292 0.074855156 0.98249996 2.3418052e-38
-0.025301717 0.074970357 0.98400015 2.3418052e-38
-0.015001878 0.074996546 0.98436123 2.3418052e-38
-0.0046809525 0.07489524 0.98299992 2.3418052e-38
0.0046809525 0.07489524 0.98299992 2.3418052e-38
0.01497905 0.07489524 0.98300004 2.3418052e-38
0.025277145 0.07489524 0.98299992 2.3418052e-38
0.034639049 0.07489524 0.98299992 2.3418052e-38
0.044887941 0.074819371 0.98199993 2.3418052e-38
0.055117615 0.074732289 0.98089981 2.3418052e-38
0.064525053 0.074808672 0.98189986 2.3418052e-38
0.07489524 0.074895255 0.98300004 2.3418052e-38
0.085193343 0.07489527 0.98299992 2.3418052e-38
0.094555259 0.07489524 0.98299992 2.3418052e-38
0.10487159 0.074907161 0.98316681 2.3418052e-38
0.11515899 0.074900009 0.98306662 2.3418052e-38
0.12451334 0.074895255 0.98299992 2.3418052e-38
0.13481142 0.074895233 0.98300004 2.3418052e-38
0.14515926 0.074919313 0.98333335 2.3418052e-38
0.15458654 0.074948497 0.98373336 2.3418052e-38
0.16491906 0.074960329 0.98388892 2.3418052e-38
0.17520961 0.074953653 0.98380005 2.3418052e-38
0.18459876 0.074960671 0.98390019 2.3418052e-38
0.19478239 0.074915074 0.98327786 2.3418052e-38
0.20508146 0.074914433 0.98326665 2.3418052e-38
0.21444553 0.0749152 0.98326659 2.3418052e-38
0.22456326 0.07472524 0.98367649 2.3418052e-38
0.23123907 0.07208667 0.98300004 2.3418052e-38
-0.11106668 0.08866667 0.98000002 2.3418052e-38
-0.10316247 0.086403258 0.98423535 2.3418052e-38
-0.094978474 0.085573748 0.98740023 2.3418052e-38
-0.085410796 0.085407816 0.98548007 2.3418052e-38
-0.07494013 0.085246854 0.98360002 2.3418052e-38
-0.064718671 0.085352354 0.9848401 2.3418052e-38
-0.055328645 0.085334137 0.98467994 2.3418052e-38
-0.044901505 0.085119404 0.98216659 2.3418052e-38
-0.034578018 0.085048422 0.98131979 2.3418052e-38
-0.025234403 0.085045218 0.98131979 2.3418052e-38
-0.014963906 0.085114375 0.98209989 2.3418052e-38
-0.0046807239 0.085171863 0.98275983 2.3418052e-38
0.0046719234 0.085034132 0.9811998 2.3418052e-38
0.014965334 0.085104197 0.98199981 2.3418052e-38
0.02525726 0.085128866 0.98227978 2.3418052e-38
0.034570709 0.085023955 0.98107976 2.3418052e-38
0.044897247 0.085114188 0.98209983 2.3418052e-38
0.055072948 0.084943742 0.98011971 2.3418052e-38
0.064408347 0.084943272 0.98011971 2.3418052e-38
0.074728392 0.085000187 0.98079979 2.3418052e-38
0.085059047 0.085054941 0.98143977 2.3418052e-38
0.09471646 0.084998429 0.98242295 2.3418052e-38
0.10497022 0.085287206 0.98258603 2.3418052e-38
0.1151376 0.085182481 0.98287982 2.3418052e-38
0.12451334 0.085193336 0.98299986 2.3418052e-38
0.13481145 0.085193343 0.98299992 2.3418052e-38
0.14510952 0.085193329 0.98299986 2.3418052e-38
0.15447143 0.085193336 0.98299986 2.3418052e-38
0.16476952 0.085193321 0.98299992 2.3418052e-38
0.17506763 0.085193336 0.98299986 2.3418052e-38
0.18442953 0.085193336 0.98299986 2.3418052e-38
0.19472761 0.085193343 0.98299992 2.3418052e-38
0.20502573 0.085193336 0.98299986 2.3418052e-38
0.21442251 0.085206747 0.98315984 2.3418052e-38
0.22321409 0.084869243 0.98208678 2.3418052e-38
-0.11455633 0.095559381 0.98274988 2.3418052e-38
-0.10502402 0.094707616 0.98460013 2.3418052e-38
-0.094708011 0.094706483 0.98460007 2.3418052e-38
-0.085453309 0.094898514 0.98434627 2.3418052e-38
-0.074787222 0.094787411 0.98354834 2.3418052e-38
-0.064464696 0.094784848 0.98315382 2.3418052e-38
-0.055084664 0.095228672 0.98029977 2.3418052e-38
-0.044803422 0.095207676 0.98008305 2.3418052e-38
-0.034571145 0.09530317 0.98109984 2.3418052e-38
-0.025205718 0.095219247 0.98019975 2.3418052e-38
-0.014978326 0.094871603 0.98099983 2.3418052e-38
-0.0045406907 0.095078081 0.9804135 2.3418052e-38
0.0046666674 0.09520001 0.97999972 2.3418052e-38
0.014933333 0.095200002 0.97999966 2.3418052e-38
0.0252 0.095200002 0.97999972 2.3418052e-38
0.034533337 0.09519998 0.97999972 2.3418052e-38
0.044803903 0.095207691 0.98008305 2.3418052e-38
0.055066667 0.095199987 0.97999972 2.3418052e-38
0.06440001 0.095199987 0.97999972 2.3418052e-38
0.074941181 0.095309786 0.97999966 2.3418052e-38
0.084933348 0.095200002 0.97999972 2.3418052e-38
0.095104374 0.095156729 0.98070562 2.3418052e-38
0.10536732 0.095242888 0.98077393 2.3418052e-38
0.11480001 0.09519998 0.97999972 2.3418052e-38
0.12476996 0.095548317 0.98099971 2.3418052e-38
0.13494806 0.095030665 0.98090887 2.3418052e-38
0.14487489 0.095332406 0.98139983 2.3418052e-38
0.15448591 0.095152058 0.98186189 2.3418052e-38
0.16485099 0.095156088 0.98185283 2.3418052e-38
0.1748725 0.095380843 0.98189986 2.3418052e-38
0.18482584 0.095383249 0.98222566 2.3418052e-38
0.19489948 0.095108673 0.98172706 2.3418052e-38
0.20460728 0.09529411 0.98099983 2.3418052e-38
0.21462698 0.095373265 0.98042834 2.3418052e-38
0.22148202 0.09388265 0.98033333 2.3418052e-38
-0.20230478 0.10538667 0.98800004 2.3418052e-38
-0.13013048 0.1085981 0.98300004 2.3418052e-38
-0.12368383 0.10752313 0.98171413 2.3418052e-38
-0.11500859 0.10500343 0.98289645 2.3418052e-38
-0.10501707 0.1048032 0.98328573 2.3418052e-38
-0.094551176 0.10473415 0.9810642 2.3418052e-38
-0.085003875 0.10494484 0.98234475 2.3418052e-38
-0.074994899 0.1049353 0.9825142 2.3418052e-38
-0.064912073 0.10458066 0.98144418 2.3418052e-38
-0.055066664 0.10546667 0.97999966 2.3418052e-38
-0.045903038 0.10470306 0.97999972 2.3418052e-38
-0.033815384 0.10360001 0.9799999 2.3418052e-38
-0.025377782 0.10493335 0.97999972 2.3418052e-38
-0.014922714 0.10507292 0.98109066 2.3418052e-38
-0.0044901138 0.10494791 0.98014259 2.3418052e-38
0.0046666665 0.10546669 0.97999966 2.3418052e-38
0.014711111 0.10422225 0.97999972 2.3418052e-38
0.025355561 0.10531114 0.97999972 2.3418052e-38
0.034533337 0.10546669 0.97999966 2.3418052e-38
0.0448718 0.1055385 0.97999972 2.3418052e-38
0.054407842 0.10480785 0.97999978 2.3418052e-38
0.064933337 0.10253335 0.98000008 2.3418052e-38
0.074282363 0.10360001 0.97999978 2.3418052e-38
0.085928895 0.10422224 0.97999984 2.3418052e-38
0.095085375 0.10516578 0.98009974 2.3418052e-38
0.10572123 0.1049576 0.97999972 2.3418052e-38
0.11480001 0.10546668 0.97999966 2.3418052e-38
0.12517038 0.1052593 0.97999966 2.3418052e-38
0.13533336 0.10546667 0.97999966 2.3418052e-38
0.14414816 0.10432593 0.97999978 2.3418052e-38
0.15524587 0.10476116 0.98039973 2.3418052e-38
0.1650034 0.10547909 0.98011512 2.3418052e-38
0.17453334 0.10546668 0.97999966 2.3418052e-38
0.18481202 0.10515525 0.98037469 2.3418052e-38
0.19511376 0.1054916 0.98023969 2.3418052e-38
0.20427029 0.10532435 0.98012471 2.3418052e-38
0.21351375 0.10381962 0.97999978 2.3418052e-38
0.24406669 0.10873334 0.98000002 2.3418052e-38
0.25106668 0.10920001 0.98000002 2.3418052e-38
-0.20376849 0.11573713 0.98800004 2.3418052e-38
-0.19940859 0.11515144 0.98300004 2.3418052e-38
-0.13140751 0.11595821 0.98633331 2.3418052e-38
-0.12461589 0.11524529 0.98380005 2.3418052e-38
-0.11512377 0.1151231 0.98275983 2.3418052e-38
-0.10518769 0.11495084 0.98299992 2.3418052e-38
-0.094681486 0.11500742 0.97999966 2.3418052e-38
-0.085026927 0.11492516 0.98107976 2.3418052e-38
-0.075016752 0.11462431 0.980214 2.3418052e-38
-0.065100007 0.11410001 0.97999978 2.3418052e-38
-0.054904349 0.11455652 0.97999972 2.3418052e-38
-0.047600001 0.11200001 0.98000002 2.3418052e-38
-0.0252 0.11312001 0.97999996 2.3418052e-38
-0.01460347 0.11462451 0.980214 2.3418052e-38
-0.0045111114 0.11495557 0.97999972 2.3418052e-38
0.004423189 0.11447538 0.97999972 2.3418052e-38
0.02644445 0.11469632 0.97999978 2.3418052e-38
0.034208696 0.11455654 0.97999972 2.3418052e-38
0.044728208 0.11264616 0.9799999 2.3418052e-38
0.051955562 0.1116889 0.98000002 2.3418052e-38
0.087733343 0.1148 0.97999996 2.3418052e-38
0.092799999 0.11373335 0.97999984 2.3418052e-38
0.10808001 0.11368001 0.98000002 2.3418052e-38
0.11425098 0.11348236 0.97999978 2.3418052e-38
0.12656 0.11293334 0.97999996 2.3418052e-38
0.13500871 0.11455655 0.97999972 2.3418052e-38
0.14093335 0.112 0.98000002 2.3418052e-38
0.15736002 0.1139289 0.97999984 2.3418052e-38
0.16466667 0.11426668 0.97999972 2.3418052e-38
0.17266667 0.11246667 0.98000002 2.3418052e-38
0.18622459 0.11371931 0.97999972 2.3418052e-38
0.19506668 0.11479999 0.97999966 2.3418052e-38
0.20265779 0.11442669 0.97999984 2.3418052e-38
0.24583906 0.11218192 0.98042858 2.3418052e-38
0.25210372 0.11542223 0.97999996 2.3418052e-38
-0.22112383 0.12702858 0.98800004 2.3418052e-38
-0.21610543 0.12828319 0.98800009 2.3418052e-38
-0.20431216 0.12564854 0.98800004 2.3418052e-38
-0.19871876 0.12758857 0.98266673 2.3418052e-38
-0.18292858 0.12851906 0.98500007 2.3418052e-38
-0.13220643 0.1250613 0.98199987 2.3418052e-38
-0.12493822 0.12561572 0.98233324 2.3418052e-38
-0.11503661 0.12480211 0.98199987 2.3418052e-38
-0.10553125 0.12514059 0.98059976 2.3418052e-38
-0.095216341 0.12508793 0.98016632 2.3418052e-38
-0.085348167 0.12475558 0.97999966 2.3418052e-38
-0.075483337 0.1225 0.97999978 2.3418052e-38
-0.064711116 0.12242223 0.9799999 2.3418052e-38
-0.055688892 0.12164446 0.97999996 2.3418052e-38
-0.040880002 0.12413334 0.98000002 2.3418052e-38
-0.036400001 0.12320001 0.98000002 2.3418052e-38
-0.028933335 0.12040001 0.98000002 2.3418052e-38
-0.014622224 0.12143705 0.97999996 2.3418052e-38
-0.0038666674 0.12093334 0.98000008 2.3418052e-38
0.00093333342 0.12040001 0.98000002 2.3418052e-38
0.02555556 0.12431113 0.97999972 2.3418052e-38
0.031422224 0.12102224 0.98000002 2.3418052e-38
0.055866674 0.12306669 0.98000008 2.3418052e-38
0.086266674 0.12146667 0.98000008 2.3418052e-38
0.090533338 0.12040001 0.98000002 2.3418052e-38
0.1288 0.12040001 0.98000002 2.3418052e-38
0.13458668 0.12114668 0.98000002 2.3418052e-38
0.16146667 0.12040001 0.98000002 2.3418052e-38
0.18884447 0.12102224 0.98000002 2.3418052e-38
0.19548149 0.12122963 0.97999996 2.3418052e-38
0.2034667 0.12189334 0.97999996 2.3418052e-38
0.2485778 0.12102224 0.98000002 2.3418052e-38
0.25106668 0.12133335 0.98000002 2.3418052e-38
-0.22253525 0.13784954 0.98800004 2.3418052e-38
-0.21536742 0.13555251 0.98799998 2.3418052e-38
-0.20591176 0.13471302 0.98800027 2.3418052e-38
-0.1954127 0.13572723 0.98460877 2.3418052e-38
-0.18443555 0.13501391 0.98446447 2.3418052e-38
-0.17615665 0.1368828 0.98184621 2.3418052e-38
-0.16740954 0.1393505 0.98200005 2.3418052e-38
-0.15362668 0.13869336 0.98000002 2.3418052e-38
-0.14353152 0.13730502 0.98074996 2.3418052e-38
-0.13523102 0.13554142 0.98037475 2.3418052e-38
-0.12513334 0.13513336 0.97999972 2.3418052e-38
-0.11544453 0.13412164 0.98065197 2.3418052e-38
-0.10616668 0.13230002 0.98000002 2.3418052e-38
-0.09475138 0.13325852 0.9801873 2.3418052e-38
-0.086800009 0.13325925 0.97999996 2.3418052e-38
-0.075600006 0.13222224 0.98000002 2.3418052e-38
-0.25386897 0.14791773 0.98800004 2.3418052e-38
-0.24626069 0.1462509 0.98800004 2.3418052e-38
-0.23501408 0.14611648 0.98800015 2.3418052e-38
-0.22443599 0.14562182 0.98800021 2.3418052e-38
-0.21547812 0.14490668 0.98800039 2.3418052e-38
-0.20536774 0.14465855 0.98782384 2.3418052e-38
-0.1949003 0.14523236 0.98640037 2.3418052e-38
-0.18468408 0.14497522 0.98357695 2.3418052e-38
-0.1748305 0.14491422 0.9816798 2.3418052e-38
-0.16550639 0.14493376 0.98179978 2.3418052e-38
-0.15493335 0.14466669 0.97999972 2.3418052e-38
-0.14466667 0.14466666 0.97999966 2.3418052e-38
-0.13533334 0.14466666 0.97999966 2.3418052e-38
-0.12607779 0.14443335 0.97999972 2.3418052e-38
-0.11666667 0.14093336 0.98000002 2.3418052e-38
-0.27005336 0.15619811 0.98800004 2.3418052e-38
-0.25311622 0.154128 0.98800004 2.3418052e-38
-0.24830692 0.15483896 0.98800004 2.3418052e-38
-0.23241524 0.15525714 0.98800004 2.3418052e-38
-0.22486055 0.15523782 0.98788023 2.3418052e-38
-0.21497284 0.15488935 0.98568022 2.3418052e-38
-0.20546836 0.15480414 0.98512012 2.3418052e-38
-0.19512308 0.154525 0.98417258 2.3418052e-38
-0.1841463 0.15488549 0.98113769 2.3418052e-38
-0.17455079 0.1549487 0.98009974 2.3418052e-38
-0.16535288 0.15507363 0.98089981 2.3418052e-38
-0.15501334 0.15479998 0.97999966 2.3418052e-38
-0.14466666 0.15493335 0.97999972 2.3418052e-38
-0.13561335 0.15316001 0.97999972 2.3418052e-38
-0.12786667 0.1508889 0.98000002 2.3418052e-38
-0.28604954 0.16654858 0.98800004 2.3418052e-38
-0.27338287 0.16683809 0.98800004 2.3418052e-38
-0.26497221 0.16730134 0.98800004 2.3418052e-38
-0.25295326 0.16711867 0.98675001 2.3418052e-38
-0.24577671 0.16594025 0.98750001 2.3418052e-38
-0.23471476 0.16524294 0.98664308 2.3418052e-38
-0.22505498 0.16554968 0.98648512 2.3418052e-38
-0.21483099 0.16510975 0.98503357 2.3418052e-38
-0.20538157 0.16505331 0.9847002 2.3418052e-38
-0.19500998 0.16427611 0.9814685 2.3418052e-38
-0.18476488 0.16500662 0.98029 2.3418052e-38
-0.17453334 0.1652 0.97999966 2.3418052e-38
-0.16535556 0.16512224 0.97999972 2.3418052e-38
-0.15758975 0.16433848 0.9799999 2.3418052e-38
-0.14420001 0.16146667 0.98000002 2.3418052e-38
-0.27348506 0.17518321 0.98799998 2.3418052e-38
-0.26403126 0.17422676 0.98800021 2.3418052e-38
-0.25498116 0.17520076 0.98714322 2.3418052e-38
-0.24511208 0.1748848 0.98634511 2.3418052e-38
-0.23566379 0.1749986 0.98496312 2.3418052e-38
-0.22450994 0.17428331 0.98239982 2.3418052e-38
-0.2144085 0.175023 0.98275989 2.3418052e-38
-0.20505956 0.17509396 0.9831599 2.3418052e-38
-0.19516402 0.17461839 0.98047972 2.3418052e-38
-0.18446667 0.17473336 0.97999972 2.3418052e-38
-0.17497781 0.17391112 0.97999972 2.3418052e-38
-0.16487059 0.1731059 0.97999978 2.3418052e-38
-0.15835556 0.17204446 0.98000002 2.3418052e-38
-0.3208648 0.18819049 0.98800004 2.3418052e-38
-0.31898287 0.18819049 0.98800004 2.3418052e-38
-0.29150707 0.18762593 0.98800004 2.3418052e-38
-0.28482628 0.18621449 0.98800009 2.3418052e-38
-0.27475816 0.18536766 0.98800039 2.3418052e-38
-0.26425087 0.18505397 0.98800004 2.3418052e-38
-0.2547718 0.18449323 0.98785013 2.3418052e-38
-0.24562643 0.18269217 0.98625004 2.3418052e-38
-0.23577942 0.18145633 0.98337507 2.3418052e-38
-0.21257514 0.18150824 0.98112506 2.3418052e-38
-0.2046214 0.18480568 0.9801932 2.3418052e-38
-0.19519541 0.18463904 0.97999966 2.3418052e-38
-0.18551375 0.18309806 0.97999978 2.3418052e-38
-0.17826667 0.18106668 0.98000002 2.3418052e-38
-0.16221334 0.18162668 0.98000002 2.3418052e-38
-0.15820001 0.18153334 0.98000002 2.3418052e-38
-0.33121529 0.19665906 0.98800004 2.3418052e-38
-0.3244305 0.19547053 0.98800009 2.3418052e-38
-0.31772825 0.19540446 0.98800004 2.3418052e-38
-0.3037295 0.19566859 0.98800009 2.3418052e-38
-0.29451817 0.19477716 0.98800021 2.3418052e-38
-0.28494969 0.19500314 0.9860003 2.3418052e-38
-0.27557334 0.19414128 0.98626947 2.3418052e-38
-0.26534858 0.19101335 0.98800004 2.3418052e-38
-0.20447533 0.19513972 0.98035973 2.3418052e-38
-0.19506668 0.19506666 0.97999966 2.3418052e-38
-0.18946669 0.19693336 0.98000002 2.3418052e-38
-0.35481587 0.20521773 0.98771006 2.3418052e-38
-0.3467772 0.20751622 0.98800004 2.3418052e-38
-0.3336038 0.20556192 0.98800033 2.3418052e-38
-0.32504675 0.20523217 0.98800033 2.3418052e-38
-0.31528878 0.20558068 0.98800033 2.3418052e-38
-0.30486861 0.20512764 0.98800021 2.3418052e-38
-0.29505742 0.20478947 0.98728019 2.3418052e-38
-0.20330326 0.2038496 0.98052925 2.3418052e-38
-0.19724447 0.20284447 0.98000002 2.3418052e-38
-0.3451198 0.21534498 0.98740023 2.3418052e-38
-0.33497912 0.21547812 0.98800039 2.3418052e-38
-0.32462859 0.21547812 0.98800021 2.3418052e-38
-0.31487724 0.21524118 0.98692024 2.3418052e-38
-0.30487809 0.21482785 0.98569256 2.3418052e-38
-0.29535669 0.2149885 0.9850418 2.3418052e-38
-0.20284446 0.21373335 0.97999978 2.3418052e-38
-0.19817778 0.2149778 0.97999996 2.3418052e-38
-0.37167621 0.22112383 0.98800004 2.3418052e-38
-0.32527187 0.22518577 0.98520023 2.3418052e-38
-0.31502953 0.22524861 0.98488593 2.3418052e-38
-0.30495381 0.22519584 0.9852336 2.3418052e-38
-0.077861279 -0.022380635 0.99300003 2.3418052e-38
-0.051274288 -0.021839049 0.99700004 2.3418052e-38
-0.021839049 -0.021839049 0.99700004 2.3418052e-38
-0.018990478 -0.021839049 0.99700004 2.3418052e-38
0.089933336 -0.025560001 0.99400002 2.3418052e-38
0.094592631 -0.023648337 0.99325013 2.3418052e-38
-0.081712149 -0.015625715 0.99475002 2.3418052e-38
-0.078810483 -0.019940002 0.99700004 2.3418052e-38
-0.051274288 -0.019940002 0.99700004 2.3418052e-38
-0.024160108 -0.014242858 0.99699998 2.3418052e-38
-0.016832471 -0.01251645 0.99700004 2.3418052e-38
-0.0038596832 -0.012717335 0.99640012 2.3418052e-38
0.0040721567 -0.013099722 0.99505883 2.3418052e-38
0.016141906 -0.010919523 0.9970001 2.3418052e-38
0.025630003 -0.011391143 0.99670011 2.3418052e-38
0.033903696 -0.0113825 0.99587506 2.3418052e-38
0.044493336 -0.010413334 0.99400008 2.3418052e-38
0.050173335 -0.010413334 0.99400002 2.3418052e-38
0.096271962 -0.016432123 0.99372727 2.3418052e-38
0.10276937 -0.013061272 0.99150008 2.3418052e-38
-0.082065992 -0.0039337417 0.9970001 2.3418052e-38
-0.078810483 -0.00094952388 0.99700004 2.3418052e-38
-0.05587583 -0.0028485721 0.99699998 2.3418052e-38
-0.03396374 -0.0032868141 0.99699998 2.3418052e-38
-0.025619086 -0.0047467053 0.9962799 2.3418052e-38
-0.015162286 -0.0047403811 0.99499995 2.3418052e-38
-0.0047333334 -0.0047333324 0.9939999 2.3418052e-38
0.0047364184 -0.0047357334 0.99435997 2.3418052e-38
0.015156665 -0.0047385711 0.99469995 2.3418052e-38
0.025585145 -0.0047408747 0.99495983 2.3418052e-38
0.035049982 -0.004738132 0.99471992 2.3418052e-38
0.044493333 -0.0047333324 0.9939999 2.3418052e-38
0.054579474 -0.0043121693 0.99377769 2.3418052e-38
0.065351285 -0.00378881 0.99445009 2.3418052e-38
0.074871443 -0.0038921912 0.9964 2.3418052e-38
0.08483348 -0.0032196676 0.9941501 2.3418052e-38
0.096610308 -0.0030186151 0.99536371 2.3418052e-38
0.10515545 -0.0047349334 0.9947198 2.3418052e-38
0.11199687 -0.0051111425 0.99490005 2.3418052e-38
0.23625934 -0.0028408165 0.99400008 2.3418052e-38
-0.082608573 0.0018990478 0.99700004 2.3418052e-38
-0.078810483 0.00094952388 0.99700004 2.3418052e-38
-0.063618101 0.0077860951 0.99700004 2.3418052e-38
-0.05612741 0.0055916402 0.99699998 2.3418052e-38
-0.035067923 0.0047380188 0.99507987 2.3418052e-38
-0.02553086 0.0047259047 0.99291992 2.3418052e-38
-0.015136668 0.0047309529 0.99349993 2.3418052e-38
-0.0047333324 0.0047333329 0.9939999 2.3418052e-38
0.0047333324 0.0047333329 0.9939999 2.3418052e-38
0.015146666 0.0047333338 0.9939999 2.3418052e-38
0.025550062 0.0047302465 0.99363995 2.3418052e-38
0.034988377 0.0047249896 0.99291998 2.3418052e-38
0.04443001 0.0047232765 0.99255985 2.3418052e-38
0.05483029 0.0047247624 0.99259984 2.3418052e-38
0.065320008 0.0047333324 0.9939999 2.3418052e-38
0.074767932 0.0047312761 0.99375987 2.3418052e-38
0.085183069 0.0047316183 0.99379998 2.3418052e-38
0.095602036 0.0047323043 0.99387991 2.3418052e-38
0.10508 0.0047333329 0.9939999 2.3418052e-38
0.11443211 0.0048914682 0.99437493 2.3418052e-38
0.12381227 0.0064047617 0.99417663 2.3418052e-38
0.13496804 0.0080031306 0.9970001 2.3418052e-38
0.15904 0.0085200006 0.99400002 2.3418052e-38
0.23779738 0.0044671437 0.99421442 2.3418052e-38
0.24114335 0.0070785722 0.99100006 2.3418052e-38
-0.081659049 0.018990478 0.99700004 2.3418052e-38
-0.074289888 0.016935186 0.99668425 2.3418052e-38
-0.065418579 0.01516524 0.99550003 2.3418052e-38
-0.055296969 0.015702028 0.99568743 2.3418052e-38
-0.044427194 0.015328013 0.99544811 2.3418052e-38
-0.034958858 0.015115431 0.9919998 2.3418052e-38
-0.025482852 0.015100956 0.99099976 2.3418052e-38
-0.015145792 0.015146111 0.99408329 2.3418052e-38
-0.0047333334 0.015146666 0.9939999 2.3418052e-38
0.004728762 0.015131431 0.99319988 2.3418052e-38
0.015110158 0.015108574 0.99166662 2.3418052e-38
0.025482852 0.015100956 0.99099976 2.3418052e-38
0.034920949 0.015100956 0.99099976 2.3418052e-38
0.044359051 0.015100956 0.99099976 2.3418052e-38
0.054740954 0.015100953 0.99099988 2.3418052e-38
0.065122865 0.015100956 0.99099976 2.3418052e-38
0.07456097 0.015100956 0.99099976 2.3418052e-38
0.084942862 0.015100953 0.99099988 2.3418052e-38
0.095324792 0.015100956 0.99099976 2.3418052e-38
0.10482592 0.015107812 0.99159986 2.3418052e-38
0.11479889 0.015367015 0.99172711 2.3418052e-38
0.12531023 0.014878182 0.9933635 2.3418052e-38
0.13537332 0.015146667 0.9939999 2.3418052e-38
0.14474016 0.015312249 0.99420673 2.3418052e-38
0.15554787 0.015742978 0.99437487 2.3418052e-38
0.16558258 0.015141237 0.99349988 2.3418052e-38
0.17542458 0.015679153 0.99444437 2.3418052e-38
0.18393613 0.017087679 0.9968124 2.3418052e-38
0.19496074 0.018928336 0.9937501 2.3418052e-38
0.20391774 0.019502476 0.99400008 2.3418052e-38
0.2454064 0.0146465 0.99400002 2.3418052e-38
0.25036192 0.017952383 0.9920001 2.3418052e-38
-0.083681859 0.02642742 0.99668425 2.3418052e-38
-0.074861631 0.025583766 0.99495995 2.3418052e-38
-0.065280572 0.025542293 0.99339992 2.3418052e-38
-0.054869812 0.025541246 0.9932999 2.3418052e-38
-0.044374015 0.02549234 0.99135983 2.3418052e-38
-0.03492986 0.025488798 0.99123985 2.3418052e-38
-0.026544647 0.024303099 0.99100012 2.3418052e-38
-0.014589525 0.025293229 0.99188876 2.3418052e-38
-0.0047236197 0.025504569 0.99195981 2.3418052e-38
0.0047190483 0.025482854 0.99099982 2.3418052e-38
0.01471644 0.025203208 0.99099982 2.3418052e-38
0.025927007 0.024150424 0.99100012 2.3418052e-38
0.034920946 0.025482854 0.99099982 2.3418052e-38
0.044359043 0.025482854 0.99099982 2.3418052e-38
0.054627694 0.024727808 0.99099982 2.3418052e-38
0.065023504 0.024688074 0.99100006 2.3418052e-38
0.074362263 0.024390029 0.99100006 2.3418052e-38
0.085358143 0.024803314 0.99099982 2.3418052e-38
0.095324785 0.025482854 0.99099982 2.3418052e-38
0.10476287 0.025482854 0.99099982 2.3418052e-38
0.11514478 0.025482854 0.99099976 2.3418052e-38
0.1256036 0.025496457 0.99159986 2.3418052e-38
0.13507892 0.02550194 0.99183989 2.3418052e-38
0.14470124 0.025532572 0.99303991 2.3418052e-38
0.15520661 0.025551151 0.99369997 2.3418052e-38
0.16566667 0.025560006 0.9939999 2.3418052e-38
0.17513332 0.025560005 0.9939999 2.3418052e-38
0.18464527 0.025565263 0.99423993 2.3418052e-38
0.19475439 0.025525816 0.99269986 2.3418052e-38
0.20518211 0.025527317 0.99279988 2.3418052e-38
0.21492499 0.025737656 0.99487489 2.3418052e-38
0.22485568 0.026664624 0.99499989 2.3418052e-38
0.23464714 0.027472768 0.99480009 2.3418052e-38
0.24688321 0.026555037 0.99592859 2.3418052e-38
0.25178924 0.025944555 0.99266678 2.3418052e-38
-0.092886247 0.035531539 0.99633342 2.3418052e-38
-0.085184388 0.035018478 0.99379992 2.3418052e-38
-0.074670441 0.034969177 0.99243987 2.3418052e-38
-0.065122858 0.034920946 0.99099982 2.3418052e-38
-0.054746389 0.03492409 0.99109977 2.3418052e-38
-0.044523183 0.034592666 0.99099988 2.3418052e-38
-0.035325449 0.033033341 0.99100018 2.3418052e-38
-0.014157144 0.034920946 0.99099982 2.3418052e-38
-0.0047190483 0.034920946 0.99099982 2.3418052e-38
0.004561747 0.034763649 0.99099988 2.3418052e-38
0.013331312 0.034095123 0.99100012 2.3418052e-38
0.024224445 0.034291748 0.99100006 2.3418052e-38
0.034606352 0.031460322 0.99100012 2.3418052e-38
0.041527621 0.031145716 0.99100006 2.3418052e-38
0.08701925 0.03378839 0.99100018 2.3418052e-38
0.094325446 0.033921629 0.99100012 2.3418052e-38
0.10476287 0.032404132 0.99100006 2.3418052e-38
0.11548185 0.034988359 0.99099982 2.3418052e-38
0.1255267 0.034920946 0.99099982 2.3418052e-38
0.134785 0.035100721 0.991 2.3418052e-38
0.14440285 0.034920946 0.99099982 2.3418052e-38
0.1547848 0.034920949 0.99099976 2.3418052e-38
0.16562738 0.035017293 0.99375999 2.3418052e-38
0.17489782 0.034978777 0.99267989 2.3418052e-38
0.18422161 0.034951802 0.99195987 2.3418052e-38
0.19469526 0.034969907 0.99239993 2.3418052e-38
0.20480667 0.034920946 0.99099982 2.3418052e-38
0.21473655 0.034931421 0.99133313 2.3418052e-38
0.22480899 0.035165895 0.99180758 2.3418052e-38
0.23477311 0.034736503 0.99177754 2.3418052e-38
0.24468303 0.034951802 0.99195981 2.3418052e-38
0.25010955 0.034920957 0.99100012 2.3418052e-38
-0.092440009 0.042190954 0.99550003 2.3418052e-38
-0.085251592 0.044301979 0.99265498 2.3418052e-38
-0.074718259 0.044201743 0.99099988 2.3418052e-38
-0.064965561 0.044201743 0.99099988 2.3418052e-38
-0.055010617 0.044089392 0.99099982 2.3418052e-38
-0.04719048 0.041527621 0.99100006 2.3418052e-38
-0.014157144 0.044359043 0.99099982 2.3418052e-38
-0.0055770571 0.04264304 0.99100012 2.3418052e-38
0.00094380957 0.040583812 0.99100006 2.3418052e-38
0.1165176 0.04401584 0.99099994 2.3418052e-38
0.1255267 0.044359043 0.99099982 2.3418052e-38
0.13496478 0.044605255 0.99099988 2.3418052e-38
0.14430353 0.043266211 0.99100006 2.3418052e-38
0.15572859 0.043280404 0.991 2.3418052e-38
0.16516671 0.044359043 0.99099982 2.3418052e-38
0.17460476 0.044359043 0.99099982 2.3418052e-38
0.18478447 0.044089388 0.99099982 2.3418052e-38
0.19572815 0.043729838 0.991 2.3418052e-38
0.2047209 0.044359043 0.99099994 2.3418052e-38
0.21485151 0.044561293 0.99099982 2.3418052e-38
0.22491811 0.043661665 0.99124992 2.3418052e-38
0.23536251 0.043061309 0.99100012 2.3418052e-38
0.24221586 0.043329448 0.99100012 2.3418052e-38
-0.092416577 0.053860005 0.99220008 2.3418052e-38
-0.085108392 0.054785553 0.9913426 2.3418052e-38
-0.075333171 0.05491256 0.99099994 2.3418052e-38
-0.064493649 0.052066829 0.99100012 2.3418052e-38
-0.059460003 0.050021909 0.99100006 2.3418052e-38
-0.014629049 0.05072977 0.99100012 2.3418052e-38
0.11939191 0.051437624 0.99100006 2.3418052e-38
0.12564467 0.052145474 0.99100012 2.3418052e-38
0.13307714 0.051437628 0.99100012 2.3418052e-38
0.15667239 0.051909532 0.99100012 2.3418052e-38
0.16543634 0.051774696 0.99100018 2.3418052e-38
0.17436883 0.05226345 0.99100012 2.3418052e-38
0.18215525 0.054087549 0.99100012 2.3418052e-38
0.1983888 0.053985912 0.99100012 2.3418052e-38
0.2048067 0.054740962 0.99099976 2.3418052e-38
0.21451443 0.052718505 0.991 2.3418052e-38
0.22179525 0.050021909 0.99100006 2.3418052e-38
0.23878382 0.052853338 0.99100006 2.3418052e-38
-0.21174382 0.06931524 0.99700004 2.3418052e-38
-0.20699622 0.067890957 0.99700004 2.3418052e-38
-0.09249334 0.068898097 0.99100006 2.3418052e-38
-0.084893189 0.06462612 0.99100006 2.3418052e-38
-0.076448575 0.061347622 0.99100006 2.3418052e-38
0.18781811 0.064745344 0.99100012 2.3418052e-38
-0.21364288 0.076531634 0.99700004 2.3418052e-38
-0.20591967 0.075093009 0.99478257 2.3418052e-38
-0.093909048 0.073145233 0.99100012 2.3418052e-38
-0.088718101 0.070785716 0.99100006 2.3418052e-38
-0.23215859 0.087830953 0.99700004 2.3418052e-38
-0.2251839 0.087131038 0.99625015 2.3418052e-38
-0.21514986 0.085037835 0.99685705 2.3418052e-38
-0.20626825 0.084121183 0.99457151 2.3418052e-38
-0.24022955 0.09875048 0.99700004 2.3418052e-38
-0.23446299 0.094922982 0.99669987 2.3418052e-38
-0.22485396 0.095065549 0.99648267 2.3418052e-38
-0.21537091 0.094874874 0.99619985 2.3418052e-38
-0.20622368 0.094614558 0.99503851 2.3418052e-38
-0.25364947 0.10577697 0.99699998 2.3418052e-38
-0.24521452 0.10610931 0.99699992 2.3418052e-38
-0.23425215 0.10526869 0.99579984 2.3418052e-38
-0.22452299 0.10515407 0.99471992 2.3418052e-38
-0.21463667 0.10495155 0.99279988 2.3418052e-38
-0.20649783 0.10454603 0.99118763 2.3418052e-38
-0.26365113 0.11805747 0.9970001 2.3418052e-38
-0.25366896 0.11489238 0.99699998 2.3418052e-38
-0.24509631 0.11449017 0.99533331 2.3418052e-38
-0.23434366 0.11477283 0.99303561 2.3418052e-38
-0.22488442 0.11526016 0.99286193 2.3418052e-38
-0.21485908 0.11545351 0.9914543 2.3418052e-38
-0.20656848 0.11457851 0.99100018 2.3418052e-38
-0.29593498 0.12818572 0.9970001 2.3418052e-38
-0.27209133 0.1231216 0.99700004 2.3418052e-38
-0.26474831 0.12532301 0.99503112 2.3418052e-38
-0.25473157 0.12499363 0.99429995 2.3418052e-38
-0.2448021 0.12494028 0.99454534 2.3418052e-38
-0.23497611 0.12504514 0.99238449 2.3418052e-38
-0.22572778 0.12544805 0.99099988 2.3418052e-38
-0.21501379 0.12517713 0.99099982 2.3418052e-38
-0.20820442 0.12401658 0.99100012 2.3418052e-38
-0.43962955 0.13008477 0.99700004 2.3418052e-38
-0.29264325 0.13426267 0.99700004 2.3418052e-38
-0.28460726 0.13548209 0.99699992 2.3418052e-38
-0.27570832 0.13555701 0.99591988 2.3418052e-38
-0.26532018 0.13512528 0.99367857 2.3418052e-38
-0.25433293 0.13518983 0.99111092 2.3418052e-38
-0.24444664 0.13496476 0.99099982 2.3418052e-38
-0.23500855 0.13496476 0.99099982 2.3418052e-38
-0.22601993 0.13433556 0.991 2.3418052e-38
-0.21571292 0.13265769 0.99100006 2.3418052e-38
-0.43519846 0.14780922 0.99700004 2.3418052e-38
-0.42747566 0.14755602 0.99700004 2.3418052e-38
-0.35084909 0.14765097 0.99700004 2.3418052e-38
-0.34467718 0.14831565 0.99700004 2.3418052e-38
-0.3266362 0.14788835 0.9970001 2.3418052e-38
-0.31286812 0.1486005 0.99700004 2.3418052e-38
-0.30448067 0.14612119 0.99699998 2.3418052e-38
-0.29539236 0.14563888 0.99699992 2.3418052e-38
-0.28515419 0.14526331 0.99637496 2.3418052e-38
-0.27518606 0.14484391 0.99349993 2.3418052e-38
-0.26533958 0.14447121 0.99147987 2.3418052e-38
-0.25548929 0.14298716 0.991 2.3418052e-38
-0.24491857 0.14282985 0.99100012 2.3418052e-38
-0.23518021 0.14217204 0.99100012 2.3418052e-38
-0.22783564 0.1417602 0.99100012 2.3418052e-38
-0.44283208 0.15603863 0.99566674 2.3418052e-38
-0.43514094 0.15304598 0.99700004 2.3418052e-38
-0.42412063 0.15403387 0.99699998 2.3418052e-38
-0.4164612 0.15686134 0.99700004 2.3418052e-38
-0.40924478 0.15857048 0.99700004 2.3418052e-38
-0.36577767 0.15751547 0.99700004 2.3418052e-38
-0.35457933 0.1539585 0.99699998 2.3418052e-38
-0.34500745 0.15502009 0.99699992 2.3418052e-38
-0.33864006 0.15840954 0.99600005 2.3418052e-38
-0.32589769 0.15456136 0.99699998 2.3418052e-38
-0.31524196 0.15646046 0.99699998 2.3418052e-38
-0.30479717 0.15477239 0.99699992 2.3418052e-38
-0.29479766 0.15503705 0.99599993 2.3418052e-38
-0.28489226 0.15521923 0.99379981 2.3418052e-38
-0.27503845 0.15471546 0.99142838 2.3418052e-38
-0.26521048 0.15478478 0.99099976 2.3418052e-38
-0.2568211 0.15593833 0.99100006 2.3418052e-38
-0.24350286 0.15478477 0.99099988 2.3418052e-38
-0.23784003 0.15478478 0.99100012 2.3418052e-38
-0.43438849 0.16652976 0.99587488 2.3418052e-38
-0.42425531 0.16574147 0.99689275 2.3418052e-38
-0.41564161 0.16356799 0.99699992 2.3418052e-38
-0.40354767 0.16730611 0.99700004 2.3418052e-38
-0.39525172 0.16685268 0.9957369 2.3418052e-38
-0.3847948 0.16775575 0.99516666 2.3418052e-38
-0.3749263 0.16820142 0.99699998 2.3418052e-38
-0.36501622 0.16625805 0.99549997 2.3418052e-38
-0.35511214 0.16569719 0.99588877 2.3418052e-38
-0.34507826 0.16500264 0.99513775 2.3418052e-38
-0.33478683 0.16558982 0.9946999 2.3418052e-38
-0.32532495 0.16602314 0.99563628 2.3418052e-38
-0.31561074 0.16485268 0.99574172 2.3418052e-38
-0.30487272 0.16495068 0.99459994 2.3418052e-38
-0.29520947 0.16475295 0.99374998 2.3418052e-38
-0.28478006 0.16520289 0.99122202 2.3418052e-38
-0.2751205 0.16280717 0.99100012 2.3418052e-38
-0.26483297 0.1634049 0.99100018 2.3418052e-38
-0.25599453 0.16383423 0.99100012 2.3418052e-38
-0.24350287 0.16233525 0.99100012 2.3418052e-38
-0.23878382 0.16139144 0.99100006 2.3418052e-38
-0.4250581 0.17473824 0.99278098 2.3418052e-38
-0.4158788 0.17666359 0.99589479 2.3418052e-38
-0.40424648 0.17615971 0.99471432 2.3418052e-38
-0.39546928 0.17502907 0.9934001 2.3418052e-38
-0.38522878 0.1746739 0.99139982 2.3418052e-38
-0.37446317 0.17493631 0.99289989 2.3418052e-38
-0.36407065 0.17494121 0.99291992 2.3418052e-38
-0.35500002 0.17513333 0.9939999 2.3418052e-38
-0.34503505 0.17487733 0.99255985 2.3418052e-38
-0.3347111 0.1749198 0.99279988 2.3418052e-38
-0.32535353 0.17523722 0.99549997 2.3418052e-38
-0.31527463 0.1751727 0.99342304 2.3418052e-38
-0.30492586 0.1749659 0.99379295 2.3418052e-38
-0.29494935 0.1749334 0.99185711 2.3418052e-38
-0.28503054 0.17460479 0.99099976 2.3418052e-38
-0.27606431 0.17491937 0.99100012 2.3418052e-38
-0.2670981 0.17838001 0.99100006 2.3418052e-38
-0.41563272 0.18515569 0.99259984 2.3418052e-38
-0.40542004 0.18198504 0.99228585 2.3418052e-38
-0.39494562 0.18441781 0.99209088 2.3418052e-38
-0.38493946 0.18490578 0.99099982 2.3418052e-38
-0.37454572 0.18485202 0.9910965 2.3418052e-38
-0.36512056 0.18512702 0.99240601 2.3418052e-38
-0.35461432 0.18521243 0.9920643 2.3418052e-38
-0.34449053 0.18498668 0.99099976 2.3418052e-38
-0.33511928 0.18502325 0.99119979 2.3418052e-38
-0.32605919 0.1848149 0.99153554 2.3418052e-38
-0.31495479 0.18476464 0.99099976 2.3418052e-38
-0.30503431 0.18509655 0.99159986 2.3418052e-38
-0.29601642 0.18434487 0.99099982 2.3418052e-38
-0.2865406 0.18140021 0.99100012 2.3418052e-38
-0.27181715 0.18026763 0.99100006 2.3418052e-38
-0.2656824 0.18510467 0.99100012 2.3418052e-38
-0.25766003 0.18923382 0.99100006 2.3418052e-38
-0.42533663 0.1950126 0.99258804 2.3418052e-38
-0.41483638 0.19560517 0.99219984 2.3418052e-38
-0.40772575 0.19725621 0.99100012 2.3418052e-38
-0.39476001 0.19122668 0.99400002 2.3418052e-38
-0.38378733 0.19382417 0.99100012 2.3418052e-38
-0.37469238 0.19536856 0.99099982 2.3418052e-38
-0.36546409 0.1947394 0.99100006 2.3418052e-38
-0.35222977 0.19555734 0.99100012 2.3418052e-38
-0.3444905 0.19536859 0.99099982 2.3418052e-38
-0.33594653 0.19477253 0.99100006 2.3418052e-38
-0.32624352 0.19316638 0.99100012 2.3418052e-38
-0.31491783 0.19500905 0.991 2.3418052e-38
-0.30715758 0.19390045 0.99100006 2.3418052e-38
-0.41563299 0.20287439 0.99140018 2.3418052e-38
-0.40715948 0.2017865 0.99100012 2.3418052e-38
-0.38111031 0.20631678 0.99100012 2.3418052e-38
-0.37634405 0.20457074 0.99100012 2.3418052e-38
-0.35015336 0.20103145 0.99100006 2.3418052e-38
-0.3439512 0.20426737 0.991 2.3418052e-38
