# .PCD v0.7 - Point Cloud Data file format
VERSION 0.7
FIELDS x y z rgb
SIZE 4 4 4 4
TYPE F F F F
COUNT 1 1 1 1
WIDTH 756
HEIGHT 1
VIEWPOINT 0 0 0 1 0 0 0
POINTS 756
DATA ascii
-0.20768002 0.18656 0.528 2.341769e-38
-0.14580341 0.19483609 0.52842855 2.341769e-38
-0.17582953 0.20454669 0.52900004 2.341769e-38
-0.16336028 0.20658711 0.52899998 2.341769e-38
-0.15728937 0.20578103 0.52899998 2.2033685e-38
-0.18957716 0.21924573 0.528 2.341769e-38
-0.17151114 0.21642223 0.52900016 2.341769e-38
-0.1648877 0.21484041 0.5289039 2.3048909e-38
-0.15833361 0.21421066 0.52900016 1.9079491e-38
-0.19144763 0.22016478 0.52900004 2.341769e-38
-0.18913011 0.22117238 0.52900004 2.341769e-38
-0.17263299 0.22234401 0.52886975 2.341769e-38
-0.16533186 0.22201328 0.52838629 2.1570196e-38
-0.15913185 0.22117241 0.52900004 1.97306e-38
-0.17472383 0.1596908 0.53800005 2.1836731e-38
-0.19194861 0.16757067 0.53580779 2.2666808e-38
-0.18501519 0.16525806 0.5359019 1.99078e-38
-0.1752874 0.16539027 0.53585547 2.1017369e-38
-0.16575596 0.16593169 0.53513914 2.3325494e-38
-0.15928128 0.16793177 0.53433341 2.341769e-38
-0.20130944 0.17787115 0.5327 2.341769e-38
-0.19479151 0.17543614 0.53362173 2.3325134e-38
-0.1851823 0.17510802 0.53418022 2.341769e-38
-0.17473751 0.17491142 0.53339851 2.3325494e-38
-0.1649355 0.17485982 0.53318334 2.2772323e-38
-0.15555528 0.17567557 0.53300041 2.2495381e-38
-0.14922921 0.17883682 0.53600001 2.341769e-38
-0.20347711 0.18552518 0.53267705 2.341769e-38
-0.19478117 0.18494743 0.53235912 2.341769e-38
-0.18465084 0.18474494 0.5327884 2.341769e-38
-0.17472708 0.18456443 0.53235209 2.341769e-38
-0.16514885 0.18476656 0.53218323 2.3417689e-38
-0.15467536 0.18479767 0.5320003 2.1111734e-38
-0.148545 0.18548205 0.53394115 2.3325854e-38
-0.21192124 0.19672272 0.53419369 2.341769e-38
-0.20449549 0.19461875 0.53214628 2.341769e-38
-0.19469674 0.19460844 0.53193235 2.3325854e-38
-0.18475367 0.19475396 0.5325256 2.341769e-38
-0.17512889 0.19485334 0.53249496 2.341769e-38
-0.16496129 0.19481343 0.53131765 2.3325494e-38
-0.15498516 0.1948297 0.53117287 2.1758537e-38
-0.14827645 0.19382441 0.53068751 2.2957794e-38
-0.21413909 0.20572226 0.53419065 2.341769e-38
-0.20459737 0.20493554 0.53209925 2.341769e-38
-0.19468994 0.20469725 0.53196937 2.3325494e-38
-0.18480656 0.2048302 0.53204298 2.3325494e-38
-0.17474157 0.20465612 0.5313161 2.3325854e-38
-0.16593213 0.20332709 0.53035879 2.341769e-38
-0.15356728 0.20454103 0.53133881 2.0926993e-38
-0.14866835 0.20458759 0.53364706 2.341733e-38
-0.22190468 0.21708243 0.53540915 2.341769e-38
-0.21486524 0.21479268 0.53362 2.341769e-38
-0.20473656 0.21496364 0.53199005 2.3325494e-38
-0.19475034 0.21475625 0.53185451 2.341769e-38
-0.18529125 0.21489121 0.53173262 2.341769e-38
-0.17568904 0.21477349 0.5307709 2.3325494e-38
-0.16647048 0.21472573 0.53000003 2.341769e-38
-0.15485746 0.21231651 0.53154171 2.0372747e-38
-0.22286788 0.22363117 0.5345751 2.341769e-38
-0.21501759 0.22319292 0.53333914 2.3325854e-38
-0.20468697 0.22292636 0.53198308 2.3325854e-38
-0.19541815 0.22294116 0.5313912 2.341769e-38
-0.18492992 0.22302713 0.53177762 2.341769e-38
-0.17759442 0.22255775 0.53073919 2.341769e-38
-0.16122097 0.2249016 0.53066671 1.9639843e-38
-0.15910001 0.2237508 0.5303334 2.24075e-38
0.015513334 0.31494668 0.81900018 9.1476764e-41
0.021060001 0.31694004 0.81900012 9.1476764e-41
-0.00078000006 0.32448 0.81900007 9.1476764e-41
0.0046200003 0.32700005 0.81900018 9.1476764e-41
0.012935001 0.32636505 0.81900018 9.1476764e-41
0.0078000003 0.33150002 0.81900007 9.1476764e-41
0.012480002 0.33150002 0.81900007 9.1476764e-41
-0.001421143 0.28849202 0.82900012 9.1476764e-41
0.0047354763 0.28729934 0.82875031 9.1476764e-41
0.014605001 0.28775233 0.82891697 9.1476764e-41
0.025264766 0.28896576 0.82900017 9.1476764e-41
0.03079143 0.28975525 0.82900006 9.1476764e-41
-0.01079016 0.29870319 0.82900012 9.1476764e-41
-0.0043152389 0.29584613 0.82866693 9.1476764e-41
0.0047141495 0.29475662 0.82533348 9.1476764e-41
0.014893315 0.29515076 0.82452744 9.1476764e-41
0.024946369 0.29517025 0.82670736 9.1476764e-41
0.033812322 0.29555961 0.82835734 9.1476764e-41
-0.02288883 0.30681446 0.82873356 9.1476764e-41
-0.014725974 0.30552545 0.82759094 9.1476764e-41
-0.0045572715 0.30433914 0.82460022 9.1476764e-41
0.0046941959 0.30445915 0.82180953 9.1476764e-41
0.01489349 0.30483255 0.82104605 9.1476764e-41
0.025311431 0.30457762 0.8226279 9.1476764e-41
0.034512728 0.30505586 0.82690907 9.1476764e-41
0.041516006 0.30597261 0.82873356 9.1476764e-41
-0.023712751 0.31491613 0.82776922 9.1476764e-41
-0.014810515 0.3151446 0.82572353 9.1476764e-41
-0.0047214837 0.31505492 0.82258147 9.1476764e-41
0.0046914285 0.31510764 0.82099962 9.1476764e-41
0.014452628 0.31475452 0.82099968 9.1476764e-41
0.025323492 0.31492656 0.82105088 9.1476764e-41
0.034413122 0.31487438 0.82339031 9.1476764e-41
0.043226019 0.31523567 0.82809687 9.1476764e-41
-0.023046169 0.32482824 0.82836854 9.1476764e-41
-0.014783384 0.32479468 0.82535011 9.1476764e-41
-0.0053401683 0.32513607 0.82147032 9.1476764e-41
0.0050563174 0.32271823 0.8210001 9.1476764e-41
0.016491085 0.3242062 0.82099998 9.1476764e-41
0.025020955 0.32527238 0.82099962 9.1476764e-41
0.034506969 0.32515565 0.82331568 9.1476764e-41
0.043263081 0.32490563 0.82796556 9.1476764e-41
-0.022390552 0.33365875 0.82823092 9.1476764e-41
-0.015227867 0.33469433 0.82621741 9.1476764e-41
-0.0045612883 0.33485863 0.82205868 9.1476764e-41
0.0043415097 0.33557642 0.82120663 9.1476764e-41
0.015417367 0.33556038 0.82141149 9.1476764e-41
0.025070742 0.33531344 0.82261103 9.1476764e-41
0.034495968 0.33502007 0.8247577 9.1476764e-41
0.043437511 0.33335516 0.82807696 9.1476764e-41
-0.021317145 0.34107432 0.82900006 9.1476764e-41
-0.0133158 0.34333253 0.8280589 9.1476764e-41
-0.0048719049 0.34529048 0.82656246 9.1476764e-41
0.0049041663 0.34486005 0.82412505 9.1476764e-41
0.014786089 0.34496635 0.82343912 9.1476764e-41
0.025150672 0.34501642 0.82520002 9.1476764e-41
0.033630937 0.34475854 0.82786983 9.1476764e-41
0.040265717 0.34028479 0.82900006 9.1476764e-41
-0.0047371434 0.35133812 0.82900012 9.1476764e-41
0.0031504766 0.35049051 0.82700002 9.1476764e-41
0.019690478 0.35049051 0.82700002 9.1476764e-41
0.025246989 0.35105559 0.82833338 9.1476764e-41
0.031580955 0.35133812 0.82900006 9.1476764e-41
-0.01038762 0.27886763 0.83900005 9.1476764e-41
-0.0039918297 0.27808207 0.83815783 9.1476764e-41
0.005127484 0.2769179 0.83742863 9.1476764e-41
0.014950049 0.27607173 0.83720011 9.1476764e-41
0.025245784 0.27701288 0.83771431 9.1476764e-41
0.032215878 0.27848989 0.8386668 9.1476764e-41
-0.022356194 0.28769368 0.83833337 9.1476764e-41
-0.014562286 0.28594837 0.83775026 9.1476764e-41
-0.0051279049 0.28471586 0.83414996 9.1476764e-41
0.0047573014 0.28231072 0.83266675 9.1476764e-41
0.015355596 0.28262281 0.83212507 9.1476764e-41
0.025401384 0.28415972 0.8334443 9.1476764e-41
0.034774546 0.2852118 0.83551168 9.1476764e-41
0.043660827 0.28817579 0.83785713 9.1476764e-41
-0.03116286 0.29964289 0.83900005 9.1476764e-41
-0.024640355 0.29551131 0.83589476 9.1476764e-41
-0.015411469 0.29493085 0.83300012 9.1476764e-41
-0.0066480003 0.2917206 0.83099997 9.1476764e-41
0.037236601 0.29278904 0.83185714 9.1476764e-41
0.044433922 0.29507211 0.83434778 9.1476764e-41
0.051380593 0.29606447 0.83792311 9.1476764e-41
-0.031848401 0.30520082 0.8379091 9.1476764e-41
-0.026646264 0.30417463 0.83328575 9.1476764e-41
-0.017253144 0.30185089 0.83100003 9.1476764e-41
0.04605937 0.30461854 0.83258343 9.1476764e-41
0.052195594 0.30518627 0.83727264 9.1476764e-41
-0.033313703 0.31501442 0.8373847 9.1476764e-41
-0.028590258 0.31496963 0.83207709 9.1476764e-41
0.048218541 0.31460258 0.83207709 9.1476764e-41
0.052748535 0.31471872 0.83659989 9.1476764e-41
-0.033072002 0.32447898 0.83669996 9.1476764e-41
-0.027928453 0.32522368 0.83187515 9.1476764e-41
0.048922863 0.32478571 0.83161539 9.1476764e-41
0.053326029 0.32471302 0.83566672 9.1476764e-41
-0.032622978 0.33420312 0.83799994 9.1476764e-41
-0.027010098 0.33542699 0.83400011 9.1476764e-41
0.047533497 0.33564052 0.83183336 9.1476764e-41
0.052856334 0.33360192 0.83542866 9.1476764e-41
-0.02542484 0.34496576 0.83607697 9.1476764e-41
-0.016415512 0.3469505 0.83200014 9.1476764e-41
0.037848573 0.34665546 0.83140004 9.1476764e-41
0.044658691 0.34507409 0.83465523 9.1476764e-41
0.05106641 0.34540653 0.83900011 9.1476764e-41
-0.023143388 0.35297745 0.83788896 9.1476764e-41
-0.015637567 0.35236785 0.83455563 9.1476764e-41
0.036849935 0.35247448 0.83328575 9.1476764e-41
0.044516306 0.35301575 0.83837497 9.1476764e-41
0.051139049 0.35238004 0.83900005 9.1476764e-41
0.0083358735 0.26834893 0.84700006 9.1476764e-41
0.014608201 0.26762632 0.84608692 9.1476764e-41
0.022234151 0.26921922 0.84671432 9.1476764e-41
-0.021208894 0.27839684 0.84566677 9.1476764e-41
-0.014380115 0.2773124 0.84439999 9.1476764e-41
-0.0048282547 0.27396661 0.84526664 9.1476764e-41
0.0041540479 0.27247256 0.84458321 9.1476764e-41
0.014746886 0.27130237 0.84223074 9.1476764e-41
0.025201432 0.27275583 0.84441662 9.1476764e-41
0.035626959 0.27685091 0.84430432 9.1476764e-41
0.041756958 0.27777871 0.84640008 9.1476764e-41
-0.031497143 0.28993526 0.84800005 9.1476764e-41
-0.024724739 0.28457758 0.84409368 9.1476764e-41
-0.016347049 0.28174788 0.84140009 9.1476764e-41
0.038892861 0.28146765 0.84200001 9.1476764e-41
0.045162968 0.28407806 0.84460002 9.1476764e-41
0.051416609 0.28859216 0.84542871 9.1476764e-41
-0.033836227 0.2956675 0.84507412 9.1476764e-41
-0.028836628 0.29310369 0.84318179 9.1476764e-41
0.05463469 0.29464751 0.84421051 9.1476764e-41
-0.041115716 0.30796191 0.84650004 9.1476764e-41
-0.036665931 0.30482075 0.84335476 9.1476764e-41
0.057221167 0.30492616 0.84355563 9.1476764e-41
0.061202455 0.30785093 0.84714293 9.1476764e-41
-0.042068727 0.31566128 0.84569252 9.1476764e-41
-0.038263276 0.31457484 0.84200007 9.1476764e-41
0.057829533 0.31481272 0.84227288 9.1476764e-41
0.061466526 0.3148894 0.84661561 9.1476764e-41
-0.041336354 0.32451096 0.84549999 9.1476764e-41
-0.038060553 0.3251071 0.84257156 9.1476764e-41
0.057776343 0.32496494 0.84346163 9.1476764e-41
0.061442222 0.3252213 0.84700006 9.1476764e-41
-0.041188575 0.33193147 0.84800005 9.1476764e-41
-0.037290595 0.33498338 0.84425002 9.1476764e-41
0.057416473 0.33553159 0.8440001 9.1476764e-41
0.062250078 0.33433193 0.84571433 9.1476764e-41
-0.03454414 0.34478697 0.84508699 9.1476764e-41
-0.029658731 0.34708858 0.8416667 9.1476764e-41
0.056028619 0.34450257 0.84404349 9.1476764e-41
0.061307494 0.34219894 0.84542865 9.1476764e-41
-0.033497293 0.35270172 0.8450771 9.1476764e-41
-0.027967621 0.35450771 0.84242862 9.1476764e-41
0.046935815 0.35514233 0.84100002 9.1476764e-41
0.051661432 0.35201859 0.84100002 9.1476764e-41
-0.021755379 0.26748112 0.85514295 9.1476764e-41
-0.013877552 0.26927024 0.85714293 9.1476764e-41
-0.0039491365 0.26726416 0.85414821 9.1476764e-41
0.0045134784 0.26630363 0.85418195 9.1476764e-41
0.014278396 0.26487169 0.8554737 9.1476764e-41
0.024471328 0.26619676 0.85351729 9.1476764e-41
0.033636954 0.26755393 0.85520011 9.1476764e-41
-0.030844957 0.27858135 0.85680002 9.1476764e-41
-0.024197992 0.27572247 0.85417151 9.1476764e-41
-0.014833695 0.27304548 0.85372412 9.1476764e-41
-0.0078387316 0.27134418 0.85133338 9.1476764e-41
0.02889524 0.27140194 0.8506667 9.1476764e-41
0.035439011 0.27271479 0.85214818 9.1476764e-41
0.04491429 0.27630082 0.85350007 9.1476764e-41
-0.033139836 0.2851986 0.85434484 9.1476764e-41
-0.028355557 0.28382415 0.8506667 9.1476764e-41
0.04906334 0.28139859 0.85150003 9.1476764e-41
0.054999903 0.28491986 0.8545264 9.1476764e-41
0.061710801 0.28707588 0.85633337 9.1476764e-41
-0.041192859 0.29691669 0.85650003 9.1476764e-41
-0.037535872 0.29350963 0.85266674 9.1476764e-41
0.058102418 0.29374641 0.85184628 9.1476764e-41
0.06290777 0.29583129 0.8554737 9.1476764e-41
-0.0434791 0.30544364 0.85452634 9.1476764e-41
-0.039666668 0.30033335 0.85000002 9.1476764e-41
0.059095241 0.30114287 0.85000002 9.1476764e-41
0.064780012 0.3041378 0.85287511 9.1476764e-41
-0.051240005 0.31964001 0.85400003 9.1476764e-41
-0.0463266 0.3152009 0.85208344 9.1476764e-41
0.066321053 0.31560367 0.85109109 9.1476764e-41
-0.051240005 0.32126668 0.85400003 9.1476764e-41
-0.046481751 0.32533571 0.8525601 9.1476764e-41
0.066519774 0.32553598 0.85258353 9.1476764e-41
0.071036205 0.32415494 0.85733336 9.1476764e-41
-0.045361046 0.33482993 0.85193539 9.1476764e-41
-0.039666668 0.33838099 0.85000002 9.1476764e-41
0.066539049 0.33106098 0.852 9.1476764e-41
-0.042948853 0.34485534 0.85314292 9.1476764e-41
-0.038986124 0.34647787 0.85028577 9.1476764e-41
-0.038063176 0.3514708 0.85033333 9.1476764e-41
-0.02129524 0.26591748 0.86000007 9.1476764e-41
-0.014682478 0.26603746 0.86306673 9.1476764e-41
-0.0057625799 0.26397663 0.86462492 9.1476764e-41
0.0051931906 0.26234934 0.86544991 9.1476764e-41
0.014865839 0.26218298 0.86513048 9.1476764e-41
0.022770384 0.26411575 0.86610001 9.1476764e-41
0.034925528 0.26831412 0.86900008 9.1476764e-41
-0.034440957 0.27962002 0.86100006 9.1476764e-41
0.038898099 0.27063143 0.86900002 9.1476764e-41
0.04491372 0.27322966 0.86604548 9.1476764e-41
0.052240118 0.27735788 0.86387503 9.1476764e-41
-0.041347113 0.28661996 0.86692321 9.1476764e-41
-0.037582573 0.28377947 0.86215389 9.1476764e-41
0.058957148 0.28329509 0.86220008 9.1476764e-41
0.061978735 0.28674573 0.86766672 9.1476764e-41
-0.044508405 0.29451069 0.86531258 9.1476764e-41
0.064259052 0.29394668 0.86133337 9.1476764e-41
-0.050924499 0.30684316 0.86842859 9.1476764e-41
-0.047093786 0.30406636 0.86426306 9.1476764e-41
-0.050967894 0.31203622 0.865143 9.1476764e-41
-0.048361272 0.31229782 0.86066669 9.1476764e-41
0.071257144 0.3284381 0.86000001 9.1476764e-41
-0.051600002 0.33007622 0.86000001 9.1476764e-41
0.071257144 0.33007622 0.86000001 9.1476764e-41
-0.0041502384 0.25920787 0.87375003 9.1476764e-41
0.0054033338 0.25820082 0.87350011 9.1476764e-41
0.014792952 0.25812161 0.87260008 9.1476764e-41
0.023975328 0.25828061 0.87354553 9.1476764e-41
0.030833336 0.25916669 0.87500006 9.1476764e-41
-0.012453018 0.26232955 0.87166679 9.1476764e-41
-0.0042908732 0.26116854 0.87241685 9.1476764e-41
0.002491429 0.26076862 0.8720001 9.1476764e-41
0.019079048 0.26130003 0.87100005 9.1476764e-41
0.025930097 0.26252636 0.87260008 9.1476764e-41
0.034519903 0.26488551 0.87346447 9.1476764e-41
0.044082098 0.26819816 0.87113357 9.1476764e-41
0.048112385 0.27208382 0.87100005 9.1476764e-41
0.050600957 0.27291334 0.87100005 9.1476764e-41
-0.044517785 0.28784478 0.87100005 9.1476764e-41
-0.050600957 0.2986286 0.87100005 9.1476764e-41
-0.048941907 0.29779908 0.87100005 9.1476764e-41
-0.051596384 0.30377164 0.87100011 9.1476764e-41
0.33603799 0.29584301 0.90762502 1.4928177e-38
0.34789002 0.28380573 0.91549999 1.3626271e-38
0.33670002 0.29336667 0.91000003 1.6216384e-38
0.3443405 0.29528433 0.91416663 1.4282782e-38
0.3502067 0.29256669 0.91700006 1.381605e-38
-0.23405334 0.33972669 0.91700006 2.341769e-38
-0.23365171 0.34558195 0.91668409 2.341769e-38
-0.22532921 0.34524292 0.91563648 2.341769e-38
-0.21896574 0.34633332 0.91600007 2.341769e-38
-0.23367603 0.35059834 0.9162001 2.341769e-38
-0.22632574 0.35080194 0.91400003 2.341769e-38
-0.28486365 0.25821167 0.9266001 2.341769e-38
-0.27692285 0.25730386 0.92700005 2.341769e-38
-0.28250226 0.2622194 0.92600006 2.341769e-38
-0.27728507 0.2624802 0.92700011 2.341769e-38
0.35135239 0.27950478 0.92000002 1.4173966e-38
-0.26132572 0.28516287 0.92700005 2.341769e-38
-0.24631718 0.28575146 0.92700005 2.341769e-38
-0.23219144 0.30900002 0.92700005 2.341769e-38
-0.23298013 0.31505227 0.92662507 2.341769e-38
-0.22575392 0.31629181 0.92680961 2.1934619e-38
-0.21983144 0.31694573 0.92700005 6.7360838e-39
-0.23247755 0.32415077 0.92673343 2.341769e-38
-0.22536801 0.32464921 0.92662495 2.2773042e-38
-0.2187078 0.32625583 0.92700005 1.4822616e-38
-0.23215361 0.33611402 0.9263078 2.341769e-38
-0.22482501 0.33556205 0.92402637 2.341769e-38
-0.21543632 0.33543602 0.92568564 1.6771348e-38
-0.20853086 0.33848745 0.92700005 2.2954918e-38
-0.23307717 0.34125191 0.92350006 2.341769e-38
-0.22488891 0.3411302 0.92000002 2.341769e-38
-0.21589577 0.3436954 0.9244231 1.9081602e-38
-0.20923716 0.34254861 0.92700005 2.0095071e-38
0.46850002 0.1365343 0.93700004 7.3648324e-40
0.47303969 0.13704059 0.93680012 3.6913985e-40
0.4755739 0.14572012 0.93512517 3.6913985e-40
-0.30117857 0.21461764 0.93700004 2.341769e-38
-0.29308343 0.21786848 0.93700016 2.341769e-38
-0.29392776 0.22451837 0.93651527 2.341769e-38
-0.28538343 0.22630782 0.93700022 2.341769e-38
-0.2932204 0.23490414 0.9352107 2.341769e-38
-0.28520399 0.23529445 0.93583339 2.341769e-38
-0.27678683 0.23662971 0.93700022 2.341769e-38
-0.29204315 0.24487266 0.93441677 2.341769e-38
-0.28482059 0.24506171 0.93324226 2.341769e-38
-0.27536407 0.24451612 0.93523681 2.341769e-38
-0.26598111 0.24560548 0.93646169 2.341769e-38
-0.25968286 0.24897431 0.93700004 2.341769e-38
-0.29140016 0.25257891 0.93242866 2.341769e-38
-0.28442127 0.25390899 0.93034804 2.341769e-38
-0.27396762 0.25410882 0.93135482 2.341769e-38
-0.26542133 0.25473565 0.93522221 2.341769e-38
-0.25769979 0.25601423 0.93700016 2.341769e-38
-0.28156319 0.26738286 0.9306668 2.341769e-38
-0.27321416 0.26559493 0.93020022 2.341769e-38
-0.26486197 0.26486313 0.93324977 2.341769e-38
-0.25522116 0.26597288 0.93623537 2.341769e-38
-0.24502234 0.26733184 0.93700027 2.3046735e-38
-0.23692715 0.26816052 0.93700004 1.1962032e-38
-0.28164929 0.27528331 0.93628585 2.341769e-38
-0.27484339 0.27450296 0.93323064 2.341769e-38
-0.26513281 0.27492321 0.93419987 2.341769e-38
-0.25467616 0.27515718 0.93499994 2.341769e-38
-0.24443528 0.27426222 0.93570578 2.3417321e-38
-0.23686995 0.27527606 0.93668449 1.4736226e-38
-0.27128381 0.2811 0.93700004 2.341769e-38
-0.26480684 0.28309596 0.93552649 2.341769e-38
-0.25476795 0.28345171 0.93457687 2.341769e-38
-0.24459906 0.28440863 0.93393093 2.341769e-38
-0.23570259 0.28529054 0.93584841 1.8342585e-38
-0.22616903 0.28744578 0.93700016 2.0187631e-38
-0.24165271 0.29146796 0.93400002 2.341769e-38
-0.23471236 0.29456028 0.93477404 2.1474366e-38
-0.22485447 0.29421133 0.93637162 1.7884192e-38
-0.21863335 0.29894763 0.93700004 2.341769e-38
-0.23249803 0.30331883 0.93216687 2.277412e-38
-0.22525096 0.30516979 0.93485725 1.6497637e-38
-0.21678585 0.30580577 0.93582374 2.3233302e-38
-0.23535478 0.31528336 0.93250006 2.341769e-38
-0.22438373 0.31218863 0.93125015 1.6673053e-38
-0.21582472 0.31507945 0.9344117 2.1480881e-38
-0.21412772 0.3242999 0.93202943 2.0279455e-38
-0.2347143 0.33267429 0.93000025 2.341769e-38
-0.21310286 0.33108002 0.93000013 1.9361833e-38
-0.49296004 0.14536001 0.94800007 1.3826926e-38
-0.49627051 0.15920383 0.94800013 2.1366797e-38
-0.32123658 0.15763888 0.94800007 2.341769e-38
-0.31577432 0.15912859 0.94800001 2.341769e-38
-0.49566859 0.1625143 0.94800007 1.8533522e-38
-0.32096574 0.16522287 0.94800007 2.341769e-38
-0.31625974 0.16697572 0.94770002 2.341769e-38
-0.31398246 0.17487088 0.94671434 2.341769e-38
-0.30483416 0.1778691 0.94747061 2.341769e-38
-0.31203762 0.18431143 0.94546163 2.341769e-38
-0.30454654 0.18540502 0.94568557 2.341769e-38
-0.29780087 0.18826695 0.9471429 2.341769e-38
-0.31139717 0.1944086 0.94500005 2.341769e-38
-0.30537719 0.194916 0.94407141 2.341769e-38
-0.29531217 0.19493997 0.94518733 2.341769e-38
-0.28542534 0.19679417 0.9478637 2.341769e-38
-0.3041687 0.20446424 0.94343984 2.341769e-38
-0.29450548 0.20456 0.94183338 2.341769e-38
-0.2850976 0.20543702 0.94633323 2.341769e-38
-0.27616894 0.20660892 0.94782358 2.341769e-38
-0.26995429 0.20856002 0.94800007 2.341769e-38
-0.30218098 0.21154554 0.94040006 2.341769e-38
-0.2953957 0.21405286 0.94066697 2.341769e-38
-0.28524792 0.215636 0.94273531 2.341769e-38
-0.27560788 0.21489997 0.94539464 2.341769e-38
-0.2659888 0.21538956 0.94760001 2.3417689e-38
-0.25912002 0.21849144 0.94800007 2.1669932e-38
-0.2828756 0.22342315 0.94013357 2.341769e-38
-0.27450603 0.22487834 0.94278789 2.341769e-38
-0.26462296 0.22501951 0.9450832 2.341769e-38
-0.25685081 0.22579527 0.9466666 2.1109174e-38
-0.28020954 0.23097146 0.94000006 2.341769e-38
-0.27392307 0.23349701 0.94080025 2.341769e-38
-0.26477203 0.23521218 0.94294578 2.341769e-38
-0.25422272 0.23496819 0.94611424 1.898581e-38
-0.24580286 0.2383543 0.94800001 1.6117725e-38
-0.26278859 0.24307936 0.94066685 2.341769e-38
-0.255151 0.244921 0.94361538 2.2863439e-38
-0.24504735 0.24530253 0.94645703 1.6393917e-38
-0.23813456 0.24568002 0.94745457 2.2578591e-38
-0.4922578 0.25490671 0.94800007 2.341769e-38
-0.25317994 0.25407541 0.94118202 2.341769e-38
-0.24505894 0.25529861 0.94408321 1.7137607e-38
-0.23524055 0.25473091 0.94611102 2.1655929e-38
-0.45702431 0.26502144 0.94650006 1.9731698e-38
-0.25245714 0.26140952 0.94000006 2.341769e-38
-0.24485978 0.26285675 0.94091678 1.944897e-38
-0.23483163 0.26416934 0.94356757 1.8982969e-38
-0.28498417 0.27782226 0.94000006 2.341769e-38
-0.23213039 0.27433437 0.94066685 1.8432331e-38
-0.2837905 0.28020954 0.94000006 2.341769e-38
-0.27483812 0.28200001 0.94000006 2.341769e-38
-0.26409525 0.28558096 0.94000006 2.341769e-38
-0.23119526 0.28222382 0.94000006 1.5299489e-38
-0.3316505 0.10446762 0.95800006 2.341769e-38
-0.32936954 0.10674858 0.95800006 2.341769e-38
-0.33119431 0.11678477 0.95800006 2.341769e-38
-0.32747638 0.11475299 0.95780015 2.341769e-38
-0.3318786 0.1249962 0.95800012 2.341769e-38
-0.32475507 0.12478758 0.95737946 2.341769e-38
-0.3171261 0.1265579 0.95740002 2.341769e-38
-0.53222227 0.13898605 0.95800012 2.341769e-38
-0.52256048 0.13718572 0.95757157 2.1568033e-38
-0.51448292 0.13653684 0.95547622 1.6135352e-38
-0.50475705 0.136142 0.95566672 1.9733137e-38
-0.49603716 0.13864668 0.95566666 1.5028344e-38
-0.33119431 0.13868192 0.95800006 2.341769e-38
-0.32495797 0.1347087 0.95593101 2.341769e-38
-0.31508479 0.13477543 0.95619446 2.341769e-38
-0.30792859 0.13640097 0.95800012 2.341769e-38
-0.53374451 0.14461324 0.95620006 2.2957076e-38
-0.52459371 0.14480489 0.95488477 2.341769e-38
-0.51443619 0.14472215 0.95314276 2.2957434e-38
-0.50467259 0.14462444 0.95386648 1.9918597e-38
-0.4949865 0.14412652 0.95120013 1.7334973e-38
-0.48947623 0.14476192 0.95000005 1.5125516e-38
-0.471701 0.1487181 0.95800006 1.4206833e-38
-0.46782899 0.14780192 0.9568001 1.7893549e-38
-0.33050287 0.14294288 0.95600003 2.341769e-38
-0.32452047 0.14511494 0.9544642 2.341769e-38
-0.31478494 0.14496151 0.95403051 2.341769e-38
-0.30428576 0.1448562 0.95660013 2.341769e-38
-0.29725376 0.14561601 0.95800012 2.341769e-38
-0.54189366 0.15703809 0.95628577 2.341769e-38
-0.53504205 0.15352169 0.95730788 1.9813483e-38
-0.52429646 0.15422611 0.95491666 2.10235e-38
-0.51463056 0.15457116 0.95470583 1.86214e-38
-0.50496191 0.15494858 0.95367992 2.2677258e-38
-0.49801123 0.15302548 0.95075005 1.6962983e-38
-0.47262341 0.15562236 0.95730788 2.1022415e-38
-0.4650566 0.15441036 0.9544 1.7153844e-38
-0.45840001 0.15189049 0.95500004 1.9361836e-38
-0.32248303 0.15264627 0.94999999 2.341769e-38
-0.31413069 0.15419455 0.952389 2.341769e-38
-0.30434629 0.15444764 0.95548487 2.341769e-38
-0.29577276 0.15522563 0.95688897 2.341769e-38
-0.28740001 0.15966669 0.95800006 2.341769e-38
-0.27736384 0.15966667 0.95800006 1.8521088e-38
-0.54229903 0.16223525 0.95700014 2.341769e-38
-0.53480732 0.16590129 0.95800012 2.341769e-38
-0.52441579 0.16512553 0.9566471 2.341769e-38
-0.51532823 0.16504236 0.95524138 1.8250791e-38
-0.50468016 0.16464655 0.95259994 1.8166192e-38
-0.49794954 0.16651286 0.95150006 2.0466742e-38
-0.48331314 0.16713162 0.95800012 2.0006855e-38
-0.47580025 0.16382316 0.95782357 2.2587938e-38
-0.4684048 0.16098572 0.95500004 2.3142183e-38
-0.32119051 0.16376191 0.95000005 2.341769e-38
-0.31417513 0.16470194 0.95068187 2.341769e-38
-0.30524272 0.16533905 0.95388889 2.341769e-38
-0.29503152 0.16485628 0.95562065 2.341769e-38
-0.28679174 0.16544509 0.95800006 2.341769e-38
-0.27775487 0.16435893 0.95800018 2.1013379e-38
-0.533764 0.17158002 0.95757157 2.341769e-38
-0.52352422 0.17298742 0.95800012 1.964167e-38
-0.51419222 0.17527609 0.95645165 1.3553182e-38
-0.50445396 0.17548178 0.95577782 1.9178531e-38
-0.49637362 0.17614551 0.9565295 1.991645e-38
-0.48466778 0.17483243 0.9562903 2.0005413e-38
-0.47836965 0.17628776 0.95537496 1.5391026e-38
-0.31214291 0.17280953 0.94999999 2.341769e-38
-0.30502352 0.17304303 0.95070583 2.341769e-38
-0.29493377 0.17438938 0.95333338 2.341769e-38
-0.28460029 0.17515461 0.95721644 2.341769e-38
-0.27543768 0.17690052 0.95800006 2.0832258e-38
-0.26755571 0.17814238 0.95800012 1.362082e-38
-0.51315528 0.18503654 0.95755017 1.3919106e-38
-0.50401938 0.18456529 0.95700002 2.1483017e-38
-0.49498847 0.18505207 0.95716012 1.8901543e-38
-0.48694983 0.18210219 0.95671439 1.9177093e-38
-0.47931907 0.18099526 0.95500004 1.724821e-38
-0.45345336 0.18886288 0.95800006 2.0938132e-38
-0.44980383 0.18886288 0.95800006 1.7974957e-38
-0.29469383 0.18416525 0.95077425 2.341769e-38
-0.28479627 0.18480483 0.95252788 2.341769e-38
-0.27534193 0.1855152 0.95634383 2.3047454e-38
-0.26652929 0.18578358 0.95800012 1.2612797e-38
-0.51458281 0.19634441 0.95800012 1.8809748e-38
-0.50746632 0.19360726 0.95800012 2.1569129e-38
-0.47193182 0.19605748 0.95600009 2.0654357e-38
-0.46433568 0.19717765 0.95575005 2.0562888e-38
-0.45599046 0.19493259 0.95611548 1.6868992e-38
-0.44980383 0.19494542 0.95800006 1.5570662e-38
-0.29115242 0.19235241 0.94999999 2.341769e-38
-0.28434199 0.19254982 0.94999993 2.341769e-38
-0.27510279 0.19507724 0.95335734 2.3417327e-38
-0.26454028 0.19479765 0.95685309 1.5842516e-38
-0.54716229 0.20385495 0.95700014 1.9907059e-38
-0.51732004 0.20163621 0.95800006 1.7969966e-38
-0.471701 0.20163621 0.95800006 2.3416964e-38
-0.46358663 0.20344661 0.95506674 1.8167273e-38
-0.45729774 0.20326006 0.95491666 1.539529e-38
-0.31033334 0.20357144 0.95000005 2.341769e-38
-0.27340668 0.20288931 0.95200008 2.341769e-38
-0.26478636 0.20535685 0.95311785 1.9627573e-38
-0.46239883 0.21936738 0.95575011 1.9823898e-38
-0.45637682 0.21637145 0.95670599 1.7978553e-38
-0.44889146 0.21988383 0.95800006 1.7771075e-38
-0.2621341 0.21279038 0.95166671 2.0923002e-38
-0.50350404 0.2243154 0.95800018 1.7979995e-38
-0.49455702 0.22676015 0.9575001 1.5675143e-38
-0.48865336 0.22609262 0.95725006 1.9639501e-38
-0.4639172 0.22147715 0.95700014 1.8985889e-38
-0.45278701 0.22307432 0.95714301 1.6858481e-38
-0.44856811 0.22455879 0.95770007 1.7410902e-38
-0.25261548 0.22438534 0.95070583 1.3442241e-38
-0.53009337 0.2399562 0.95800006 1.9914459e-38
-0.52826864 0.2399562 0.95800006 1.8073083e-38
-0.4934698 0.2335093 0.95775008 1.7796691e-38
-0.48949242 0.23220097 0.95800006 2.2953843e-38
-0.45452893 0.23792702 0.95417649 1.6948846e-38
-0.53009337 0.24360573 0.95800006 1.9908373e-38
-0.52479959 0.24520856 0.95625013 1.585367e-38
-0.5147053 0.24713819 0.95499992 2.2313147e-38
-0.50527632 0.24759243 0.95461893 2.3141823e-38
-0.49548712 0.24688493 0.95461106 2.1851456e-38
-0.489454 0.24760191 0.95466679 2.1485909e-38
-0.45464733 0.24306792 0.95540005 1.6209507e-38
-0.51433706 0.25227633 0.95322227 2.341769e-38
-0.50443292 0.25292778 0.9528572 2.341769e-38
-0.49545422 0.25361744 0.95183343 2.323366e-38
-0.48539749 0.25484189 0.95366669 2.3325494e-38
-0.33528 0.068892866 0.96450007 1.6299552e-38
-0.32466117 0.068845145 0.96900004 1.6024397e-38
-0.35052001 0.078200005 0.96600002 1.71282e-38
-0.34408161 0.075948566 0.96599984 1.6299176e-38
-0.33479142 0.074645072 0.96532226 1.5744936e-38
-0.32532299 0.074649364 0.9676798 1.7037821e-38
-0.35052001 0.080040008 0.96600002 1.6299507e-38
-0.34467682 0.084213689 0.96637481 2.0550611e-38
-0.33448148 0.084417425 0.96445441 2.2677596e-38
-0.32488689 0.08515951 0.96685702 2.3233655e-38
-0.31568822 0.087671436 0.96899998 2.341769e-38
-0.34449491 0.095032588 0.96689987 2.341769e-38
-0.33445662 0.095197797 0.96264517 2.341769e-38
-0.32458016 0.095341973 0.96505249 2.341769e-38
-0.31484812 0.095131204 0.96899998 2.341769e-38
-0.3433331 0.10352818 0.96685708 2.341769e-38
-0.3354646 0.10520271 0.96238899 2.341769e-38
-0.32414857 0.1048988 0.9632352 2.341769e-38
-0.31479827 0.10523723 0.96732342 2.341769e-38
-0.30553412 0.10571843 0.96899992 2.341769e-38
-0.29781923 0.10665593 0.96899998 1.9078352e-38
-0.28331715 0.10889715 0.96900004 1.8325673e-38
-0.34238002 0.11166572 0.96900004 2.341769e-38
-0.33575225 0.11491092 0.96295017 2.341769e-38
-0.32353485 0.11514124 0.96117419 2.341769e-38
-0.31511185 0.11522046 0.96514678 2.341769e-38
-0.30542746 0.11534263 0.96887988 2.341769e-38
-0.29564393 0.11529122 0.96899998 1.8799637e-38
-0.28516287 0.11377511 0.96900004 1.611336e-38
-0.53636003 0.12972 0.96600002 2.341769e-38
-0.52348006 0.12972 0.96600002 1.844529e-38
-0.51910961 0.12923905 0.96700001 1.3820773e-38
-0.5036186 0.12821001 0.96850002 1.5862036e-38
-0.49530712 0.12679127 0.96799994 1.7061655e-38
-0.48634574 0.12827715 0.96900004 1.6409079e-38
-0.46296668 0.12704667 0.96900004 2.009863e-38
-0.45386121 0.12698518 0.96899998 1.9360366e-38
-0.44764984 0.12742859 0.96857148 2.1944006e-38
-0.33737156 0.12421723 0.96470004 2.341769e-38
-0.31372792 0.12382475 0.9626072 2.341769e-38
-0.30513659 0.1253189 0.96591163 2.341769e-38
-0.29542324 0.12518975 0.968647 2.2030063e-38
-0.28667298 0.12592807 0.96899998 1.1685118e-38
-0.54329145 0.13543962 0.96480012 2.341769e-38
-0.53467488 0.13447341 0.96282631 2.3325853e-38
-0.52563912 0.13392898 0.96282363 1.9639865e-38
-0.51598805 0.13187504 0.96523082 1.0696582e-38
-0.50358039 0.13279314 0.96586359 1.8537119e-38
-0.49536964 0.13289869 0.96761113 1.7705566e-38
-0.48603815 0.13073811 0.96900004 1.7890316e-38
-0.47158003 0.13935144 0.96900004 1.8353088e-38
-0.46315205 0.13569491 0.96762484 2.2496457e-38
-0.4561629 0.13327146 0.96899998 2.2680486e-38
-0.44781518 0.13192773 0.96869993 2.1758537e-38
-0.33489537 0.13377348 0.96537507 2.341769e-38
-0.32857049 0.13637048 0.96100003 2.341769e-38
-0.30426818 0.13398014 0.96177286 2.341769e-38
-0.29520947 0.1347369 0.9649061 2.3141456e-38
-0.55105323 0.14452744 0.96660006 2.2125142e-38
-0.54465717 0.14503971 0.96277285 2.1480508e-38
-0.53907526 0.14460763 0.96100003 1.9466603e-38
-0.52900767 0.14003144 0.96100003 2.341769e-38
-0.48154688 0.14710344 0.96900004 1.6876185e-38
-0.47354764 0.14471695 0.96495229 1.9269287e-38
-0.46508652 0.1449143 0.96662045 2.0562886e-38
-0.45740101 0.14686041 0.96659988 1.9730266e-38
-0.44943145 0.14858001 0.96900004 1.5672984e-38
-0.30294383 0.14003144 0.96100008 2.341769e-38
-0.29356733 0.14414084 0.96165407 2.341769e-38
-0.2850486 0.14528096 0.9655 1.8336463e-38
-0.55279148 0.15042572 0.96900004 1.8688899e-38
-0.54427946 0.15372466 0.96150023 1.7427526e-38
-0.53590548 0.15671319 0.96133351 2.3322976e-38
-0.5299229 0.15833621 0.96100003 2.3417689e-38
-0.49076006 0.15825906 0.96800005 2.2040151e-38
-0.48374107 0.15568118 0.96564293 2.286344e-38
-0.47779429 0.15506597 0.96200001 2.2680477e-38
-0.46324122 0.15264094 0.96744442 1.7341466e-38
-0.45571959 0.15487346 0.96829402 1.9181048e-38
-0.44837677 0.15438083 0.96900004 1.7611948e-38
-0.29104576 0.15467526 0.96100008 2.341769e-38
-0.28480136 0.15473655 0.96226931 2.1851071e-38
-0.54464829 0.16773438 0.96175021 2.3325854e-38
-0.53490585 0.16342087 0.96100026 2.341769e-38
-0.52946532 0.16337001 0.96100003 2.341769e-38
-0.50203431 0.16888286 0.96900004 1.8991254e-38
-0.49348369 0.16599637 0.96490914 2.2862728e-38
-0.48535717 0.16332872 0.96123552 2.0286301e-38
-0.47866955 0.16016668 0.96100003 2.2774842e-38
-0.46050575 0.16703716 0.96900004 2.2774124e-38
-0.45341596 0.16483729 0.96365219 1.5221691e-38
-0.44685951 0.16524008 0.96445 2.1207886e-38
-0.29196098 0.16108191 0.96100003 2.341769e-38
-0.28244251 0.16419373 0.96100026 2.3325496e-38
-0.55371433 0.17811143 0.96900004 2.3139664e-38
-0.54578412 0.17517492 0.96341658 2.3049269e-38
-0.53532827 0.17618488 0.96200007 2.3325854e-38
-0.52657539 0.17583135 0.96157169 2.2773764e-38
-0.50161201 0.17360464 0.96742868 2.175783e-38
-0.49579737 0.17373805 0.96446168 2.2222392e-38
-0.48095775 0.17270477 0.96560001 2.0006491e-38
-0.47592381 0.17704624 0.96626079 2.1392639e-38
-0.4468016 0.17536487 0.96715373 1.9536132e-38
-0.27426636 0.17313258 0.96100014 1.6766966e-38
-0.55108005 0.18768001 0.96600002 2.3325854e-38
-0.54449773 0.1856281 0.96353561 2.1761421e-38
-0.53482252 0.18478374 0.96280622 2.3325854e-38
-0.52551687 0.18524565 0.9626956 1.9259893e-38
-0.51863497 0.18579334 0.96100008 1.1071094e-38
-0.50887239 0.1894543 0.96100003 2.341769e-38
-0.49176216 0.18780074 0.96425003 1.944722e-38
-0.48504692 0.18571329 0.96373349 1.8721872e-38
-0.47543666 0.18482707 0.96494091 2.2865599e-38
-0.45496163 0.18498828 0.96248156 1.7701246e-38
-0.44811553 0.1856724 0.96447629 1.6853127e-38
-0.55235577 0.19509803 0.96630001 1.6409667e-38
-0.54460508 0.19542468 0.96370363 1.5582408e-38
-0.53496611 0.19495684 0.9639641 1.871969e-38
-0.52550399 0.19489403 0.96256 1.6223932e-38
-0.51519525 0.1927527 0.96122223 1.9270725e-38
-0.50471461 0.19561633 0.96267861 2.0100123e-38
-0.49651405 0.19274139 0.96476942 2.102278e-38
-0.47542223 0.19396667 0.96451986 2.1761057e-38
-0.46697876 0.19289558 0.96500003 2.1208244e-38
-0.45263237 0.19539022 0.96154565 1.483024e-38
-0.5508213 0.20438129 0.96233338 2.0281249e-38
-0.54405898 0.20470744 0.96288562 2.000347e-38
-0.52475733 0.20482054 0.9639501 1.2348168e-38
-0.51472282 0.20438905 0.96150029 2.0374549e-38
-0.50573444 0.20489497 0.96451342 1.6602831e-38
-0.47766671 0.20170128 0.96266669 2.0656513e-38
-0.46036479 0.20958954 0.96100003 2.0474649e-38
-0.50533134 0.22455823 0.96108359 1.954442e-38
-0.32194477 0.069785722 0.97700006 1.6208054e-38
-0.31450099 0.069785722 0.97700006 1.5562342e-38
-0.32085764 0.074363336 0.97300005 1.6666182e-38
-0.31519473 0.075417951 0.97500002 1.9534286e-38
-0.30643687 0.076609209 0.97700012 1.7128591e-38
-0.35206446 0.085625082 0.97366679 2.0737526e-38
-0.34935337 0.088960961 0.97300005 2.341769e-38
-0.32122287 0.08238858 0.97200006 2.341769e-38
-0.31382313 0.083640277 0.97252184 2.341769e-38
-0.3049424 0.085286655 0.97503042 1.7596399e-38
-0.35228956 0.092020959 0.97600007 2.341769e-38
-0.3497124 0.091834292 0.97400004 2.341769e-38
-0.31042287 0.095040008 0.97200006 2.341769e-38
-0.30478874 0.095248774 0.97319257 2.119959e-38
-0.50431812 0.10886572 0.97700006 1.7330661e-38
-0.49966574 0.10886572 0.97700006 1.7234137e-38
-0.47609371 0.10762509 0.97700012 1.9076253e-38
-0.46709907 0.10886572 0.97700006 1.9352132e-38
-0.31011429 0.10090286 0.97200006 2.341769e-38
-0.3027086 0.10090287 0.97200006 2.3413715e-38
-0.49541217 0.11630954 0.97700012 1.5578577e-38
-0.48224044 0.1142794 0.97700018 1.6128535e-38
-0.4750677 0.1150714 0.97524148 1.7789481e-38
-0.46484596 0.11515769 0.97423553 1.7324542e-38
-0.45546427 0.11686242 0.97571439 1.741673e-38
-0.4464007 0.11824602 0.97610015 1.7507871e-38
-0.54246765 0.12933619 0.97700006 2.3415177e-38
-0.53479123 0.1268937 0.97700018 2.2956356e-38
-0.52394956 0.12493621 0.9751904 1.9088483e-38
-0.51553088 0.12641539 0.97499996 1.6410881e-38
-0.5053826 0.12642318 0.97366679 1.2730656e-38
-0.49393353 0.12288573 0.97588903 1.9730605e-38
-0.48591471 0.12430169 0.97525018 1.8815138e-38
-0.4742589 0.12498462 0.97449994 1.7796694e-38
-0.46454763 0.1241474 0.97252005 1.5576789e-38
-0.45539016 0.12324532 0.97300011 1.4276695e-38
-0.44427386 0.12428534 0.97500002 2.1017734e-38
-0.5426572 0.1307943 0.97400004 2.341769e-38
-0.5347445 0.1310581 0.97366667 2.2403549e-38
-0.529441 0.13119715 0.97700006 1.8075796e-38
-0.51284575 0.13052572 0.97200006 1.3093308e-38
-0.50081146 0.13700572 0.97200006 2.0659395e-38
-0.49527007 0.13708566 0.97300011 1.9366152e-38
-0.48644561 0.1362329 0.9746471 2.0837668e-38
-0.47446215 0.13583176 0.97466683 1.8536746e-38
-0.46811494 0.13308446 0.97266674 2.2311351e-38
-0.48579058 0.14357808 0.97377294 1.7706285e-38
-0.47957909 0.1409981 0.97400004 2.0194102e-38
-0.46008003 0.1416343 0.97200006 2.341769e-38
-0.48816001 0.15336001 0.97200006 1.8618872e-38
-0.32293335 0.068133339 0.98000002 1.6300614e-38
-0.52360004 0.38546669 0.98000002 1.4472262e-38
-0.51693338 0.38653341 0.98000008 1.9435976e-38
-0.51670563 0.39295983 0.98266667 1.9340203e-38
