# .PCD v0.7 - Point Cloud Data file format
VERSION 0.7
FIELDS x y z rgb
SIZE 4 4 4 4
TYPE F F F F
COUNT 1 1 1 1
WIDTH 993
HEIGHT 1
VIEWPOINT 0 0 0 1 0 0 0
POINTS 993
DATA ascii
0.055469021 0.19321506 0.86329418 9.1476764e-41
0.065643534 0.19759192 0.86590004 9.1476764e-41
0.075327694 0.19774412 0.86484635 9.1476764e-41
0.085955635 0.19631808 0.86247063 9.1476764e-41
0.095633402 0.19538096 0.86334604 9.1476764e-41
0.10428944 0.19428162 0.86419052 9.1476764e-41
0.066044003 0.20144248 0.86900008 9.1476764e-41
0.075268574 0.20140953 0.86849999 9.1476764e-41
0.084684059 0.20221095 0.86749989 9.1476764e-41
0.09391389 0.20225799 0.86723518 9.1476764e-41
0.10069367 0.20166318 0.86900008 9.1476764e-41
0.045900002 -0.35136795 0.87633342 3.6914686e-40
0.096516855 -0.35166898 0.87268764 1.8511153e-40
0.10427002 -0.35451597 0.87472004 1.8511013e-40
0.11492039 -0.35722515 0.87684625 9.3278834e-41
0.12393779 -0.3573575 0.87533343 1.8547166e-40
0.13462667 -0.35872573 0.87800002 2.7694282e-40
0.14967811 -0.35872573 0.87800002 2.7694702e-40
0.17728218 -0.35730943 0.87628573 1.8511013e-40
0.18503094 -0.35590208 0.8747223 1.8475139e-40
0.19503996 -0.35569832 0.87518758 1.8475279e-40
0.20438533 -0.35218117 0.8738001 2.7694562e-40
0.21480127 -0.35255975 0.87350005 1.8510872e-40
0.22478345 -0.35458592 0.87435305 1.847612e-40
0.23484182 -0.35668081 0.87626684 1.84757e-40
0.24277654 -0.35720226 0.87700003 1.8439126e-40
0.047999375 -0.34848863 0.87400007 2.7694983e-40
0.054519463 -0.34337649 0.8730002 2.7730716e-40
0.061708894 -0.34064099 0.87166679 2.7731416e-40
0.074943811 -0.34063193 0.87450004 2.7695263e-40
0.085895509 -0.34377068 0.8726896 2.7730435e-40
0.093399636 -0.34698352 0.87560004 2.7695543e-40
0.05798794 -0.33766991 0.87400007 2.7730295e-40
0.064703137 -0.33744016 0.8736192 2.7695263e-40
0.07563138 -0.33827046 0.87473696 2.7730996e-40
0.084206298 -0.33765206 0.87540013 2.7730576e-40
0.058015242 0.09891858 0.87650001 9.1476764e-41
0.065265842 0.096479818 0.87395835 9.1476764e-41
0.073758893 0.095137551 0.8718335 9.1476764e-41
0.086680591 0.0964261 0.87233353 9.1476764e-41
0.09377484 0.09731257 0.87518764 9.1476764e-41
0.046834078 0.10841841 0.87644452 9.1476764e-41
0.054871604 0.10466655 0.87344831 9.1476764e-41
0.063144855 0.10162088 0.87136382 9.1476764e-41
0.088206038 0.10092541 0.87100005 9.1476764e-41
0.095026806 0.10261611 0.87195259 9.1476764e-41
0.10445076 0.10563497 0.87404764 9.1476764e-41
0.11195453 0.1086112 0.87725002 9.1476764e-41
0.037500061 0.11594376 0.87506258 9.1476764e-41
0.043324221 0.11351189 0.87242866 9.1476764e-41
0.050600957 0.11032668 0.87100005 9.1476764e-41
0.10709175 0.11041112 0.87166679 9.1476764e-41
0.11580708 0.11420924 0.87369573 9.1476764e-41
0.12215477 0.11755834 0.87700009 9.1476764e-41
0.028048735 0.12803096 0.87483346 9.1476764e-41
0.034140602 0.12445202 0.87262499 9.1476764e-41
0.11862192 0.12028096 0.87100005 9.1476764e-41
0.12466736 0.12466165 0.87307149 9.1476764e-41
0.13087429 0.12754858 0.87250006 9.1476764e-41
0.025984706 0.13409674 0.8731876 9.1476764e-41
0.031245401 0.13078827 0.87100005 9.1476764e-41
0.12755524 0.13406384 0.87100023 9.1476764e-41
0.13155034 0.13499212 0.87185735 9.1476764e-41
0.025067622 0.14565223 0.87481833 9.1476764e-41
0.12816143 0.14143381 0.87100005 9.1476764e-41
0.13300446 0.14463985 0.87283325 9.1476764e-41
0.025083441 0.15505753 0.87430441 9.1476764e-41
0.1285762 0.15760952 0.87100005 9.1476764e-41
0.1328904 0.15448377 0.87208337 9.1476764e-41
0.025813101 0.16490668 0.87450016 9.1476764e-41
0.1285762 0.16009811 0.87100005 9.1476764e-41
0.1327343 0.16188012 0.87166679 9.1476764e-41
0.028605558 0.17274748 0.87483335 9.1476764e-41
0.031521063 0.17591725 0.8735556 9.1476764e-41
0.036797818 0.18507627 0.87464714 9.1476764e-41
0.041832384 0.18617114 0.87266678 9.1476764e-41
0.03758667 0.19377431 0.87700003 9.1476764e-41
0.040833335 0.19166668 0.87500006 9.1476764e-41
0.063873336 0.19991525 0.87100005 9.1476764e-41
0.067467943 0.20433939 0.87100017 9.1476764e-41
0.074705668 0.20630497 0.87295246 9.1476764e-41
0.083599381 0.20706636 0.87200016 9.1476764e-41
0.10203143 0.20323335 0.87100005 9.1476764e-41
0.0087361913 -0.36211082 0.8876667 4.6064744e-40
0.01469162 -0.36207604 0.88619995 2.7730716e-40
0.16716 -0.36036003 0.88200003 2.7694282e-40
0.25639495 -0.36063242 0.88266671 1.8512694e-40
0.26478997 -0.36165115 0.88700002 2.7623236e-40
0.27135667 -0.36279672 0.88900006 9.2913095e-41
0.010944762 -0.35949335 0.88400006 4.6026068e-40
0.1066789 -0.35205227 0.88083339 2.7658829e-40
0.11509905 -0.35339347 0.88369697 1.8511153e-40
0.12504436 -0.35577294 0.88573515 1.8510872e-40
0.13520682 -0.35774517 0.88400018 1.8475279e-40
0.14474042 -0.35781607 0.88316655 1.8474859e-40
0.15492339 -0.35891977 0.88513047 1.8475139e-40
0.1647912 -0.35818344 0.88444 2.7658969e-40
0.17407009 -0.35756373 0.88252628 1.84757e-40
0.18461744 -0.35482085 0.88285714 1.8475139e-40
0.19449344 -0.35532647 0.88341677 1.8474999e-40
0.20492955 -0.35549927 0.88711119 1.8510872e-40
0.21568829 -0.35372728 0.88546157 2.7694422e-40
0.22522478 -0.35331184 0.88540012 1.8475139e-40
0.23486529 -0.3550767 0.88455009 1.8475139e-40
0.24517804 -0.35660204 0.88380951 1.8474999e-40
0.25443816 -0.35826293 0.88447368 1.8439546e-40
0.26222402 -0.35926479 0.88759995 2.7622956e-40
0.055314288 -0.34278098 0.88000005 3.6879513e-40
0.089676194 -0.34110478 0.88000005 1.8512694e-40
0.096457832 -0.34341195 0.88178563 2.7695123e-40
0.10433078 -0.34513333 0.88445711 2.7658829e-40
0.11250964 -0.34861377 0.88822228 1.8511293e-40
0.068252146 -0.33746791 0.88475007 2.7767149e-40
0.075340033 -0.33530208 0.88460708 2.7730856e-40
0.084978148 -0.33618671 0.88514286 2.7766449e-40
0.093796276 -0.33884233 0.88725007 1.8547727e-40
0.10075334 -0.33951336 0.88900006 2.7767149e-40
0.063500002 -0.10075334 0.88900006 1.3448322e-38
0.065405004 -0.093768343 0.889 1.0319423e-38
0.029149529 -0.085755251 0.88900006 1.1159714e-38
0.035314195 -0.084311604 0.889 1.9537206e-38
0.042164002 -0.081788011 0.88900006 1.8243538e-38
0.067112446 -0.085400447 0.88900006 7.2784451e-39
0.071569785 -0.082794555 0.88790911 1.7571638e-39
0.037374295 -0.078014292 0.88900006 2.0003236e-38
0.044375297 -0.075353332 0.889 1.9354234e-38
0.074108869 -0.075801969 0.88806248 4.5954462e-40
0.075353339 -0.067733333 0.88900006 1.8474859e-40
0.049388897 0.098495565 0.88900012 9.1476764e-41
0.05607624 0.096448876 0.88486373 9.1476764e-41
0.065188281 0.092511646 0.88369232 9.1476764e-41
0.098141678 0.096043095 0.88075006 9.1476764e-41
0.10408913 0.098192796 0.88375008 9.1476764e-41
0.039190955 0.10872524 0.88500005 9.1476764e-41
0.045526315 0.10466713 0.88344431 9.1476764e-41
0.051630002 0.10158049 0.88150007 9.1476764e-41
0.10741118 0.10267369 0.88172734 9.1476764e-41
0.11458196 0.10590502 0.88043469 9.1476764e-41
0.12152382 0.10811429 0.88000005 9.1476764e-41
0.02929467 0.11734801 0.88900006 9.1476764e-41
0.033835672 0.11407151 0.88427275 9.1476764e-41
0.11900953 0.11146668 0.88000005 9.1476764e-41
0.12420597 0.11424966 0.88080013 9.1476764e-41
0.028836736 0.12343348 0.88685721 9.1476764e-41
0.031723052 0.12135277 0.88120002 9.1476764e-41
0.017780002 0.13970003 0.88900012 9.1476764e-41
0.022475241 0.13518895 0.88423079 9.1476764e-41
0.017113768 0.14551283 0.88645452 9.1476764e-41
0.021767275 0.14489041 0.88218182 9.1476764e-41
0.017030045 0.15427059 0.88209105 9.1476764e-41
0.021371432 0.15337145 0.88000005 9.1476764e-41
0.018456932 0.16367492 0.88533336 9.1476764e-41
0.02139524 0.16529524 0.88100004 9.1476764e-41
0.024387062 0.17549823 0.88308328 9.1476764e-41
0.027146189 0.18398066 0.88249999 9.1476764e-41
0.032595314 0.18596353 0.88107699 9.1476764e-41
0.029566668 0.19260573 0.88700002 9.1476764e-41
0.034082495 0.19281879 0.88292319 9.1476764e-41
-0.022236191 -0.36689717 0.89800006 2.7660511e-40
-0.015383812 -0.36626524 0.8975001 2.7695263e-40
-0.0050507369 -0.36589685 0.89745462 1.8512134e-40
0.0036201193 -0.36497086 0.89537501 2.7696944e-40
0.017173717 -0.36341143 0.89280003 2.7695403e-40
0.02127381 -0.36420524 0.89350003 3.6985451e-40
0.26873335 -0.36048004 0.89200008 2.7658689e-40
0.27556244 -0.36136553 0.89385003 1.8474999e-40
0.28457657 -0.36284715 0.8955186 1.84757e-40
0.29463509 -0.36405888 0.89589483 1.8474999e-40
0.30521557 -0.36527327 0.89692301 1.8475279e-40
0.31504479 -0.36426172 0.89720011 1.8474999e-40
0.32488421 -0.36480421 0.89684218 1.8475139e-40
0.33497763 -0.36451063 0.89658815 1.8511153e-40
0.3459135 -0.36372933 0.89576012 1.8511853e-40
0.35437611 -0.36353964 0.89330781 1.8475139e-40
0.11880001 -0.35046002 0.89100003 1.8475279e-40
0.1259246 -0.35151663 0.89172721 1.8511013e-40
0.13458408 -0.35360473 0.89416015 1.8546746e-40
0.14495526 -0.35562035 0.89508712 1.8475279e-40
0.15514043 -0.35593688 0.89439136 1.847542e-40
0.1648536 -0.35605255 0.89518183 1.8475139e-40
0.17456162 -0.35721877 0.8951875 1.8511013e-40
0.18452628 -0.35577041 0.89482355 1.8475139e-40
0.19423613 -0.35670248 0.89700007 2.7623236e-40
0.20493177 -0.35489807 0.8941111 9.327463e-41
0.21464917 -0.35327464 0.89437497 1.8546746e-40
0.22503076 -0.35153654 0.89323521 2.7658549e-40
0.23583059 -0.35206261 0.89326316 1.8510732e-40
0.24471593 -0.35390511 0.89445466 1.8474999e-40
0.25456545 -0.35554269 0.89462972 1.8439546e-40
0.26455784 -0.35766453 0.89563149 2.7658689e-40
0.27166286 -0.35879907 0.89700001 2.7694282e-40
0.10743698 -0.34225935 0.89336365 1.847612e-40
0.11470141 -0.34548065 0.89469236 1.8511853e-40
0.12435911 -0.34796044 0.89580965 1.8511153e-40
0.1314216 -0.34922224 0.89800012 1.8547446e-40
0.228007 -0.34984064 0.89666671 2.7658829e-40
0.23151144 -0.3498286 0.89700007 1.8475139e-40
0.068734288 -0.33688289 0.89100003 2.7802462e-40
0.07552287 -0.33348864 0.89100003 2.7766589e-40
0.085173674 -0.33421466 0.89482355 2.7730716e-40
0.095510453 -0.33611852 0.89419252 2.776729e-40
0.10403708 -0.33792296 0.89586675 1.8547446e-40
0.055286326 -0.11320844 0.89752007 1.4280229e-38
0.061707247 -0.11401428 0.89740002 1.3818501e-38
0.028436668 -0.10155952 0.89800012 2.0370222e-38
0.034637142 -0.10134572 0.898 2.0641737e-38
0.045746192 -0.10189699 0.89783335 1.0963342e-38
0.054562893 -0.1048732 0.89523345 1.3359362e-38
0.062761575 -0.10511644 0.89295006 1.3084231e-38
0.027373584 -0.094317853 0.8938421 1.4382927e-38
0.035077114 -0.09430673 0.89326936 2.0367673e-38
0.044256937 -0.095895946 0.89586967 1.3727045e-38
0.054437112 -0.095273934 0.89319462 1.2897318e-38
0.061703268 -0.095282458 0.89099991 1.3264991e-38
0.02572481 -0.085047811 0.89342862 3.133997e-39
0.037167437 -0.087063432 0.89099997 1.732236e-38
0.041580003 -0.087402865 0.89100003 1.7411265e-38
0.0557248 -0.085653976 0.8951112 1.2805494e-38
0.062530756 -0.084357969 0.89128578 1.307773e-38
0.027305519 -0.075093694 0.89604163 2.8591617e-39
0.035237309 -0.073907331 0.89200002 1.4754597e-38
0.044337861 -0.071067862 0.89099991 2.0645707e-38
0.057410728 -0.074929774 0.89741671 6.7281454e-39
0.064758576 -0.074986711 0.89477795 1.1145583e-38
0.07166744 -0.072854862 0.89159995 1.7473954e-39
0.027808629 -0.066028915 0.89764702 5.3394082e-39
0.035116658 -0.065022461 0.8963449 4.8006958e-39
0.044289637 -0.064727582 0.89433354 2.0647512e-38
0.054420691 -0.064456277 0.89668006 1.0683158e-38
0.065216005 -0.065786041 0.8978669 8.2833415e-40
0.073620915 -0.064209491 0.89516014 2.7622676e-40
0.036775239 -0.059011437 0.89800012 2.8588619e-39
0.045196041 -0.05591942 0.89800024 1.8620668e-38
0.052230973 -0.054567426 0.89600003 1.8610904e-38
0.068590105 -0.057643052 0.89800006 1.8438986e-40
0.07456208 -0.055999655 0.89709103 1.8438986e-40
0.054093815 -0.047893338 0.89800012 1.8703119e-38
0.046080638 0.098126777 0.89422226 9.1476764e-41
0.053460002 0.095040008 0.89100003 9.1476764e-41
0.029700002 0.10946572 0.89100003 9.1476764e-41
0.036379367 0.10801049 0.89300007 9.1476764e-41
0.042107385 0.10272335 0.89324999 9.1476764e-41
0.027092729 0.1160169 0.89154541 9.1476764e-41
0.031397145 0.11116286 0.89100003 9.1476764e-41
0.01873143 0.12856573 0.89400005 9.1476764e-41
0.024854816 0.12543112 0.89322215 9.1476764e-41
0.01804 0.13434108 0.89137489 9.1476764e-41
0.022964766 0.13097145 0.89300001 9.1476764e-41
0.017820001 0.16547143 0.89100003 9.1476764e-41
0.019517144 0.17056286 0.89100003 9.1476764e-41
0.44629335 0.34901336 0.89600003 1.1990604e-38
-0.040643811 -0.37098289 0.90800005 2.7803163e-40
-0.038914289 -0.37098289 0.90800005 2.7731697e-40
-0.033924632 -0.36897555 0.90671432 2.7695823e-40
-0.024581511 -0.36783692 0.90558338 2.7695823e-40
-0.015502858 -0.36578715 0.90424997 2.7730856e-40
-0.0052328217 -0.36524072 0.90400004 1.8547306e-40
0.0039282539 -0.36587998 0.90488893 2.7695403e-40
0.015544286 -0.3677786 0.90650004 2.7731697e-40
0.28832 -0.36125812 0.90100002 2.7623797e-40
0.29579908 -0.36151478 0.90200007 1.8474859e-40
0.30494469 -0.36235484 0.90218198 1.847542e-40
0.31444746 -0.36155438 0.90259999 1.8510872e-40
0.32507887 -0.36167473 0.9022941 1.84757e-40
0.33501583 -0.36201766 0.90264708 1.8439266e-40
0.34330136 -0.36160284 0.90278578 1.847598e-40
0.13721198 -0.35147864 0.90233338 1.8582479e-40
0.14544339 -0.35206196 0.90363646 2.7694422e-40
0.15509665 -0.35218856 0.90386218 1.8511153e-40
0.16486579 -0.35274759 0.90386975 1.8474999e-40
0.17537378 -0.35419109 0.90457171 1.8510732e-40
0.18419807 -0.35423014 0.90519065 1.8511153e-40
0.19522831 -0.35531622 0.90419054 1.8475139e-40
0.20422818 -0.35459644 0.90481251 1.8546746e-40
0.21505089 -0.35439947 0.9054001 1.8511013e-40
0.22382049 -0.35191652 0.90390009 1.8511013e-40
0.23561017 -0.35097972 0.9040001 1.8511293e-40
0.24495441 -0.35102981 0.90388894 1.8510872e-40
0.25476637 -0.35191619 0.90434998 1.8474999e-40
0.26539898 -0.3533079 0.90380007 2.7658549e-40
0.27485564 -0.3547965 0.90286505 1.8510872e-40
0.28495005 -0.35648647 0.9037649 1.8511293e-40
0.29468015 -0.35706717 0.90509534 2.7730716e-40
0.30427623 -0.35799322 0.9065001 2.7658409e-40
0.31548595 -0.35891408 0.90591681 9.3271827e-41
0.32514641 -0.35792044 0.90558815 1.8511293e-40
0.3346459 -0.35854349 0.90615386 1.847612e-40
0.34187859 -0.35914528 0.90650004 1.8474859e-40
0.11682346 -0.34250611 0.90274996 2.7694842e-40
0.12542072 -0.34438151 0.9054448 1.8511853e-40
0.13432561 -0.34695071 0.90622747 2.7766169e-40
0.14408556 -0.34854999 0.90690911 1.8547166e-40
0.15108335 -0.34878525 0.90650004 1.8510872e-40
0.24822858 -0.34907144 0.90500003 1.8512554e-40
0.086165853 -0.3324295 0.90413332 1.8547166e-40
0.094692186 -0.33227646 0.90387523 2.7766589e-40
0.10513461 -0.33405057 0.90386689 2.7730576e-40
0.11400655 -0.33661681 0.90417409 2.7694702e-40
0.1222197 -0.33927494 0.90800011 3.6843219e-40
0.092172861 -0.32648811 0.90450001 3.6913985e-40
0.038914289 -0.13144383 0.90800005 1.2436671e-38
0.045258425 -0.13300319 0.90708721 1.1977496e-38
0.05469865 -0.13244419 0.9070527 1.3819569e-38
0.062551118 -0.13115558 0.90800011 5.0581536e-39
0.027960639 -0.12077843 0.90800011 2.1751283e-38
0.035022862 -0.12149906 0.90800005 1.7318711e-38
0.044885565 -0.12476718 0.90590346 1.0777876e-38
0.05507642 -0.12478362 0.90356684 1.4741203e-38
0.061953433 -0.12477402 0.90350002 1.077033e-38
0.025821958 -0.11452442 0.90685004 2.1107774e-38
0.034539431 -0.11483962 0.90660036 1.8980411e-38
0.045056172 -0.11512908 0.9052124 1.0680289e-38
0.053591948 -0.11802711 0.90100002 1.3450105e-38
0.061782859 -0.11927525 0.90100002 1.354336e-38
0.019889524 -0.10204192 0.90800005 1.7229089e-38
0.024414096 -0.10563283 0.90408015 1.9633013e-38
0.0347527 -0.10695426 0.90252376 1.9627221e-38
0.043899424 -0.10648461 0.90386963 1.1602252e-38
0.018516531 -0.094438992 0.90735722 1.575358e-38
0.022493813 -0.09528365 0.90266669 1.1517639e-38
0.0089358743 -0.082440645 0.90800011 1.9720863e-38
0.015401272 -0.084720708 0.90630335 1.759819e-38
0.021949526 -0.084243409 0.90128577 9.1151172e-39
0.054060005 -0.081519052 0.90100002 5.8087325e-39
0.0095123816 -0.077828571 0.90800005 1.9442491e-38
0.015637061 -0.074856393 0.9052574 1.8613424e-38
0.022318415 -0.075539686 0.90133333 1.1417442e-38
0.055604577 -0.074997537 0.90100002 4.0516247e-39
0.017071385 -0.066028036 0.907143 2.129251e-38
0.023385907 -0.065437339 0.90493333 1.593432e-38
0.03089143 -0.060924765 0.90100002 2.7662318e-39
0.055776197 -0.065901726 0.90100002 8.092678e-39
0.064071119 -0.061210796 0.90100002 1.8475139e-40
0.025078099 -0.059668578 0.90800011 1.602331e-38
0.035211723 -0.054670122 0.90353882 2.3949298e-39
0.042751431 -0.051851429 0.90140003 1.1344809e-38
0.065917328 -0.056400262 0.90100002 1.8439266e-40
0.073796198 -0.052343812 0.90100002 2.7622676e-40
0.037923813 -0.049128573 0.90500003 2.1229812e-39
0.045767095 -0.045900576 0.90400004 1.2912499e-38
0.052662317 -0.043699462 0.90228575 1.7513229e-38
0.048345238 -0.038850002 0.90650004 2.11805e-39
0.050852384 -0.038785718 0.90500003 5.1432418e-39
0.34907144 0.33010954 0.90500003 1.2077712e-38
-0.2205143 0.34849906 0.90800005 2.341769e-38
0.44534585 0.35636213 0.90447831 1.4654868e-38
0.4521105 0.35723814 0.90560007 1.4295457e-38
-0.051526669 -0.37466002 0.91700006 2.7658969e-40
-0.045410547 -0.37208679 0.91435719 2.7694983e-40
0.025007939 -0.3719264 0.91600007 3.6914966e-40
-0.042040955 -0.36893508 0.91580009 2.7695823e-40
-0.034834318 -0.36606151 0.91439301 2.7695543e-40
-0.025583722 -0.36421058 0.9141292 1.8439546e-40
-0.015761565 -0.3634735 0.91347998 1.8439406e-40
-0.0052256784 -0.36381114 0.91473091 1.8439686e-40
0.0055871145 -0.36409402 0.91511786 2.7623376e-40
0.014350408 -0.3660605 0.91444457 1.8417476e-39
0.022903334 -0.3675859 0.9131667 3.6914125e-40
-0.020064764 -0.35942003 0.91600001 2.7658409e-40
0.16642733 -0.35054159 0.9133333 1.8511573e-40
0.17514656 -0.35058421 0.9134444 2.7658689e-40
0.18540294 -0.35177749 0.91343749 1.8475279e-40
0.1954339 -0.35228977 0.91357154 1.8474999e-40
0.20470701 -0.35384524 0.91400003 1.8510872e-40
0.2153784 -0.35405853 0.91322738 1.8475279e-40
0.22460501 -0.35250098 0.91480005 1.847556e-40
0.23487613 -0.35144517 0.91341662 2.7695963e-40
0.24340305 -0.35044461 0.9138335 1.858402e-40
0.25775716 -0.35054165 0.91333336 1.847584e-40
0.26433161 -0.35059309 0.91276926 1.847598e-40
0.27474532 -0.35060745 0.91315389 2.7658829e-40
0.28526112 -0.35222581 0.91318744 1.847542e-40
0.29485139 -0.35260376 0.91191667 1.8510872e-40
0.30519363 -0.35378966 0.91256005 1.8475139e-40
0.31501573 -0.35497344 0.91330558 1.8546746e-40
0.32486022 -0.35432592 0.91396439 1.8546606e-40
0.33449936 -0.35538331 0.9138 1.8439406e-40
0.34060001 -0.35793334 0.91000003 2.7658409e-40
0.12826668 -0.34060001 0.91000003 2.7695123e-40
0.13588093 -0.34286401 0.91165 2.7694842e-40
0.14511457 -0.3443611 0.91372746 2.7694842e-40
0.15509509 -0.34699884 0.91506898 1.8511153e-40
0.16295931 -0.3485662 0.91499996 1.8511853e-40
0.17903334 -0.34846002 0.91700006 2.7658689e-40
0.24733931 -0.34931073 0.91125005 1.8511573e-40
0.25323972 -0.34932542 0.91166675 9.2924305e-41
0.26665717 -0.34944287 0.91500002 1.8478643e-40
0.096417017 -0.33130902 0.91442859 2.7730155e-40
0.10641964 -0.33161926 0.91440004 2.7694702e-40
0.11509862 -0.33346868 0.91447359 3.6842659e-40
0.12487088 -0.33704615 0.91340911 2.7730716e-40
0.13362096 -0.33910593 0.91580003 2.7695123e-40
0.14060667 -0.33972669 0.91700006 3.6913845e-40
0.096719854 -0.32837987 0.91216671 3.6913985e-40
0.10260382 -0.32954955 0.91300005 2.7694282e-40
0.035998508 -0.14312914 0.91557139 1.3267159e-38
0.045292903 -0.14435084 0.91454571 1.2437754e-38
0.053530484 -0.14175639 0.91540003 9.8573528e-39
0.017757779 -0.1307089 0.91700006 1.8615945e-38
0.02498286 -0.13355199 0.91463149 1.6858456e-38
0.034692347 -0.13522805 0.91148388 1.3910365e-38
0.044466671 -0.13833334 0.90999997 1.2623227e-38
0.055551749 -0.13742319 0.91133332 1.059277e-38
0.061648339 -0.13503167 0.91175008 2.3909655e-39
0.017072383 -0.12412941 0.91600001 1.9355319e-38
0.024090506 -0.12552556 0.91171879 1.9810525e-38
0.034542855 -0.12566666 0.90999997 1.5934692e-38
0.040733337 -0.12306668 0.91000003 1.335717e-38
0.017403696 -0.11489861 0.91395831 2.0277652e-38
0.022013335 -0.11665334 0.91000003 2.0924099e-38
0.009024445 -0.10247111 0.917 1.9351003e-38
0.015353132 -0.10522055 0.91414297 1.8708163e-38
0.0071006012 -0.094739199 0.91436839 1.9353529e-38
0.01383152 -0.09558636 0.91042858 1.8059532e-38
0.0050045792 -0.085354112 0.91165382 1.7326324e-38
0.013000001 -0.089266673 0.91000003 1.8614147e-38
0.0065800454 -0.075328082 0.9131428 1.8066411e-38
0.011266667 -0.070200004 0.91000003 2.1107417e-38
0.0092489533 -0.066837914 0.9162001 2.0651133e-38
0.01333931 -0.063714385 0.91190904 2.1757104e-38
0.024555556 -0.061533339 0.91000003 1.5288973e-38
0.017221108 -0.055841532 0.91336006 2.1573431e-38
0.025133336 -0.054985207 0.90999991 1.7318701e-38
0.030580956 -0.055095244 0.91000003 7.7260535e-39
0.017006986 -0.047534287 0.91583335 1.5584347e-38
0.02504432 -0.045986291 0.91360724 1.8983309e-38
0.031537041 -0.047158625 0.91144449 1.3352471e-38
0.027073335 -0.039300002 0.91700006 2.0373415e-38
-0.23346683 0.34569493 0.91519058 2.341769e-38
-0.22505438 0.34640744 0.91551858 2.341769e-38
-0.2188462 0.34614432 0.91550004 2.341769e-38
-0.23454715 0.35050434 0.91550004 2.341769e-38
-0.22727844 0.35092992 0.91433334 2.341769e-38
-0.25037336 0.37861431 0.91600001 2.3325496e-38
-0.051341429 -0.37406334 0.92416668 3.6842379e-40
-0.047870241 -0.3715317 0.92225003 2.7622816e-40
0.027161907 -0.37413335 0.92000002 3.6914826e-40
-0.043694608 -0.36731777 0.92373341 2.765939e-40
-0.035331521 -0.36185989 0.9219048 3.684336e-40
-0.025419051 -0.36027089 0.92040008 3.6842098e-40
-0.014398318 -0.36122456 0.92284626 1.8511433e-40
-0.0057781641 -0.36114532 0.92264295 1.8475139e-40
0.0052571436 -0.36011431 0.92000002 1.0127296e-39
0.013142858 -0.36186668 0.92000002 6.8170718e-39
-0.032839168 -0.3583473 0.92562509 1.8511853e-40
-0.024465509 -0.35762629 0.92460865 1.8475139e-40
-0.018150859 -0.35791776 0.9252001 1.847598e-40
-0.0017561906 -0.35914096 0.92200005 2.7695123e-40
0.0052685719 -0.35914096 0.92200005 3.5891514e-39
0.18662858 -0.35135239 0.92000002 2.7658549e-40
0.19477601 -0.35115391 0.92040008 2.7694422e-40
0.20485321 -0.35213965 0.92361122 9.3277432e-41
0.21461748 -0.35296538 0.92423534 9.327463e-41
0.22507702 -0.35130969 0.92423534 1.8510872e-40
0.23527575 -0.35210526 0.92466676 2.765939e-40
0.24453449 -0.3513172 0.92360014 1.8512274e-40
0.25585306 -0.35127106 0.92388898 9.3277432e-41
0.26481771 -0.35070962 0.92545462 1.847556e-40
0.27505967 -0.35086495 0.92400008 2.7658969e-40
0.28529245 -0.35133058 0.92456257 1.8511153e-40
0.29496866 -0.35127544 0.92380005 2.7658969e-40
0.30468625 -0.35153875 0.9248001 1.8511433e-40
0.31528965 -0.35280657 0.92590922 9.3277432e-41
0.32267794 -0.35183945 0.92220002 1.8582479e-40
0.3381632 -0.35453022 0.92066669 9.219563e-41
0.34120858 -0.3561191 0.921 1.8403113e-40
0.14632383 -0.3408381 0.92000002 3.6878532e-40
0.15552381 -0.34215245 0.92000002 1.8511713e-40
0.1650416 -0.34437475 0.9216131 1.8511573e-40
0.17480665 -0.34534261 0.92305011 1.8511293e-40
0.18504524 -0.34538665 0.92353839 1.8511293e-40
0.19435409 -0.34648886 0.92393547 2.7694562e-40
0.20040858 -0.34696287 0.92700005 2.7658689e-40
0.22992858 -0.34973812 0.92500007 1.8510732e-40
0.27573812 -0.34973812 0.92500007 3.6842239e-40
0.29688096 -0.34973812 0.92500007 2.7658829e-40
0.099278577 -0.3303405 0.92250001 4.6062222e-40
0.10582917 -0.33092299 0.92412508 2.7695263e-40
0.11528098 -0.33092806 0.9212001 4.6026489e-40
0.12507516 -0.33264315 0.92266679 2.7694983e-40
0.13484868 -0.33562192 0.92383337 1.8511573e-40
0.14461055 -0.33722839 0.92400002 2.7695123e-40
0.15519543 -0.33807191 0.9247393 1.8511713e-40
0.16466235 -0.33902374 0.92636371 1.847612e-40
0.17467961 -0.3396478 0.92700011 2.7659109e-40
0.18098572 -0.33990002 0.92700005 2.7697085e-40
0.10702398 -0.32841957 0.92616671 1.8582899e-40
0.11448257 -0.32876796 0.92466676 2.7695123e-40
0.12271716 -0.32930574 0.92700005 2.7694702e-40
0.029134288 -0.15096858 0.92700005 1.4373141e-38
0.035696849 -0.15227829 0.92556256 1.3544098e-38
0.044577666 -0.15294254 0.92436367 8.8421036e-39
0.05248205 -0.15139906 0.92500007 1.5698873e-39
0.017825715 -0.1417263 0.9266001 1.7691466e-38
0.025058134 -0.14448746 0.92527997 1.5663873e-38
0.033275608 -0.1464107 0.92138463 1.3543377e-38
0.04556191 -0.14924446 0.92000002 9.487836e-39
0.055940397 -0.14597435 0.92364711 3.0413698e-39
0.060873341 -0.14380351 0.92633343 2.391697e-39
0.0097114295 -0.13154572 0.92700005 1.6957144e-38
0.014955491 -0.13464162 0.92400008 1.7785098e-38
0.023846667 -0.13835333 0.92060006 1.6307088e-38
0.06268286 -0.13860857 0.92700005 6.4431563e-40
0.0078217164 -0.12381525 0.92640013 1.8148857e-38
0.012664218 -0.12515445 0.92171437 1.8153539e-38
0.0062255631 -0.11467159 0.92420006 2.0366239e-38
0.012266668 -0.11478096 0.92000002 1.9722673e-38
0.0047101234 -0.10542034 0.92214835 1.9538638e-38
0.011390476 -0.10952382 0.92000002 1.9354974e-38
-0.001765143 -0.094052583 0.92640013 1.8984388e-38
0.0019020638 -0.09561985 0.92250007 1.7878775e-38
-0.004350306 -0.084679283 0.92617869 1.8244291e-38
0.00087619055 -0.086742863 0.92000002 1.5004869e-38
-0.001176508 -0.07557556 0.92633343 1.5472259e-38
0.0023627842 -0.074119568 0.92230779 1.1141307e-38
-0.00088285719 -0.067980006 0.92700005 1.9527792e-38
0.0048340475 -0.065125965 0.92410719 1.0782252e-38
0.011415238 -0.060588576 0.92200005 1.6420968e-38
0.0082988581 -0.056679428 0.92700005 4.7067317e-39
0.012230476 -0.054925032 0.92345464 1.1713963e-38
0.015344022 -0.0448636 0.92366666 4.8075538e-39
0.022418506 -0.041957561 0.92057151 1.7976019e-38
0.018440001 -0.039514288 0.92200005 6.4570502e-39
0.022816669 -0.03949286 0.92150009 1.6779299e-38
-0.28163144 0.24896574 0.92700005 2.341769e-38
-0.27774689 0.24914232 0.92700005 2.341769e-38
-0.28414601 0.2560671 0.92608327 2.341769e-38
-0.27585894 0.25592688 0.92599988 2.341769e-38
-0.26856515 0.25691149 0.92700005 2.341769e-38
-0.2828899 0.262638 0.92462516 2.341769e-38
-0.27478361 0.26497921 0.9254998 2.341769e-38
-0.26604787 0.26548418 0.92660004 2.341769e-38
-0.27410397 0.27246711 0.92628586 2.341769e-38
-0.26590052 0.27216077 0.92700005 2.341769e-38
-0.2516143 0.28339717 0.92700005 2.341769e-38
-0.24760954 0.28466353 0.92633343 2.341769e-38
-0.23264205 0.30658275 0.92425013 2.341769e-38
-0.22866002 0.30988288 0.92700005 2.341769e-38
-0.23245852 0.31407171 0.9234001 2.341769e-38
-0.22852443 0.31595668 0.92645466 2.341769e-38
-0.23154384 0.3228004 0.92642868 2.341769e-38
-0.2265926 0.32591677 0.92673343 2.3233302e-38
-0.2186543 0.32871717 0.92700005 1.6307785e-38
-0.2320472 0.33585274 0.92592871 2.341769e-38
-0.22473608 0.33559898 0.92517143 2.341769e-38
-0.21570201 0.33595055 0.92599994 1.6032711e-38
-0.20853086 0.33848745 0.92700005 2.2679052e-38
-0.23194177 0.34182614 0.92200011 2.341769e-38
-0.22598682 0.34190965 0.92107701 2.341769e-38
-0.21560773 0.34334311 0.9231599 1.8435876e-38
-0.20879573 0.34299004 0.92700005 1.9728431e-38
-0.24314287 0.3796905 0.92500007 2.3325854e-38
-0.070498101 -0.38283145 0.93700004 8.2977748e-40
-0.065019436 -0.38120517 0.93520015 6.4537642e-40
-0.058942549 -0.38060352 0.93300009 4.6062082e-40
-0.063532382 -0.37784338 0.93625009 6.4537501e-40
-0.055835962 -0.37447879 0.93412107 4.6098375e-40
-0.048766669 -0.37062573 0.93100005 5.521172e-40
-0.052610308 -0.36745533 0.9362728 5.5318499e-40
-0.045290057 -0.36452127 0.93514818 3.6914546e-40
-0.038771749 -0.36138701 0.93233341 1.8512414e-40
-0.013285715 -0.36048573 0.93000007 2.7695123e-40
-0.005246494 -0.36062732 0.93245465 1.8439546e-40
0.0014866668 -0.36175084 0.93633336 2.755802e-39
-0.041049525 -0.35962954 0.93700004 2.7768411e-40
-0.034385309 -0.35792795 0.93257159 1.8511433e-40
-0.024668572 -0.35628057 0.93418205 1.8403533e-40
-0.014999685 -0.3578043 0.93380022 9.29187e-41
-0.005415678 -0.3585586 0.93600023 1.3804163e-39
0.00089238101 -0.35962954 0.93700004 5.4237425e-39
0.20814288 -0.35162863 0.93000007 3.6842098e-40
0.21586806 -0.3513374 0.93057162 1.8474999e-40
0.22054288 -0.3516286 0.93000007 1.8510732e-40
0.23607251 -0.35100371 0.93187511 1.8474999e-40
0.24296029 -0.35133746 0.93057162 2.7658689e-40
0.25488287 -0.35145876 0.9303335 1.8474999e-40
0.26096004 -0.35060954 0.93200004 1.8439126e-40
0.29140002 -0.3516286 0.93000007 2.7695123e-40
0.30734289 -0.3516286 0.93000007 1.8510872e-40
0.31531429 -0.3516286 0.93000019 1.8475139e-40
0.32273597 -0.35247692 0.93225002 1.8474859e-40
0.18600002 -0.34100002 0.93000007 2.7695263e-40
0.1956082 -0.34178197 0.93020022 1.8511013e-40
0.20571841 -0.3454394 0.93287885 1.8474999e-40
0.2149635 -0.34642005 0.93421203 1.8474999e-40
0.22450855 -0.34781033 0.93403864 1.8511153e-40
0.23434153 -0.34928209 0.93558347 1.8474999e-40
0.24554366 -0.34910035 0.93331265 1.8474859e-40
0.25498763 -0.3480337 0.93320018 1.8475279e-40
0.26522464 -0.34834757 0.93395478 1.8475279e-40
0.27456421 -0.34809303 0.9336924 2.7623096e-40
0.28494954 -0.34854788 0.93340921 2.7658409e-40
0.29495627 -0.34845063 0.93336368 1.847584e-40
0.3049992 -0.34773329 0.93172002 1.8511713e-40
0.31443375 -0.34851187 0.93114305 2.7658969e-40
0.32043049 -0.34883431 0.93200004 1.8474999e-40
0.10362858 -0.33125716 0.93000007 2.7730716e-40
0.12754287 -0.33037144 0.93000007 2.7730295e-40
0.13642572 -0.33122715 0.93116683 1.8547586e-40
0.14547473 -0.3324374 0.93187511 2.7731276e-40
0.1550515 -0.33289215 0.93266666 1.8511153e-40
0.16505629 -0.33432865 0.93334383 1.8511713e-40
0.17467298 -0.33572939 0.93387884 2.7695123e-40
0.1848838 -0.33724207 0.93414807 2.7659109e-40
0.1944712 -0.33810505 0.93500006 2.765953e-40
0.20141391 -0.33842421 0.93660015 3.6844341e-40
0.10894287 -0.3268286 0.93000007 3.6914125e-40
0.11554547 -0.32701349 0.9308669 2.7695683e-40
0.12504826 -0.32724828 0.93120027 2.7730996e-40
0.13368528 -0.32801485 0.93338478 1.8618772e-40
0.15348953 -0.3292886 0.93700004 1.8546746e-40
0.034802862 -0.16152096 0.9370001 1.142252e-38
0.043726671 -0.16152096 0.9370001 3.777867e-39
0.017304195 -0.15146191 0.93660003 1.750564e-38
0.025239667 -0.15421212 0.93325013 1.5662794e-38
0.034997623 -0.15762988 0.93207169 1.3358612e-38
0.045417145 -0.1585059 0.93500006 4.6987289e-39
0.054909464 -0.15572956 0.93368763 2.6772928e-39
0.062059686 -0.15113907 0.93533343 1.7527946e-39
0.0089185722 -0.14181286 0.93650001 1.7969503e-38
0.014535138 -0.14514178 0.93252647 1.7968051e-38
0.022851428 -0.14897716 0.93000013 1.6586186e-38
0.059342861 -0.14968573 0.93000007 2.0268647e-39
0.06514594 -0.14435288 0.93394136 1.3844016e-39
0.0066657625 -0.13437299 0.93375015 1.7139374e-38
0.012104764 -0.13846669 0.93000007 1.7785459e-38
0.067155242 -0.13727906 0.93600005 9.2812201e-40
-0.0019117009 -0.12218219 0.93642867 1.7967704e-38
0.0033669847 -0.12570199 0.93080026 1.7411288e-38
0.087405242 -0.12040715 0.93650007 1.2925759e-39
0.091719054 -0.12021429 0.93500006 9.3533309e-40
-0.002674984 -0.11490548 0.93526691 1.8984377e-38
0.0013285716 -0.11602858 0.93000019 1.9719791e-38
0.076538838 -0.11319509 0.93700022 4.8867523e-39
0.08556582 -0.11498404 0.93590003 4.4279266e-39
0.091719054 -0.11576191 0.93500006 5.0675507e-39
-0.012047144 -0.10217762 0.93700004 1.8432296e-38
-0.0046550976 -0.1043794 0.93496293 1.9817391e-38
0.077225722 -0.10595815 0.93657905 5.4424471e-39
0.08551608 -0.10511217 0.93533325 5.535007e-39
0.091719054 -0.10151429 0.93500006 5.9019665e-39
-0.012915557 -0.095003501 0.93516684 1.8523414e-38
-0.0068030846 -0.095342413 0.93142867 1.9445724e-38
0.078232065 -0.094294928 0.93700022 7.1027111e-39
0.085011028 -0.094817951 0.93570012 6.4580493e-39
0.091228575 -0.092114292 0.93000007 5.6286502e-39
-0.014067829 -0.084900141 0.93069583 1.7323433e-38
-0.0086357147 -0.085028581 0.93000019 1.9539711e-38
0.078284763 -0.087913334 0.93620008 1.9440788e-39
0.085653409 -0.086314 0.93577778 2.3085355e-39
0.091228575 -0.089457147 0.93000007 5.9995879e-39
-0.013143174 -0.07634604 0.93033355 1.7509984e-38
-0.0064140954 -0.074943632 0.93016011 1.9446061e-38
-0.0039365087 -0.066133335 0.93000019 2.1291787e-38
0.0026571432 -0.061704766 0.93000007 1.1707745e-38
0.0051708343 -0.055724647 0.93120837 1.0773928e-38
0.47670993 0.15902232 0.9370001 1.3829246e-39
0.48491988 0.15866534 0.9370001 1.7513694e-39
-0.30665052 0.19878858 0.93600005 2.341769e-38
-0.30356523 0.20651835 0.93684632 2.341769e-38
-0.29649359 0.20881715 0.93700016 2.341769e-38
-0.30068415 0.21163653 0.93500012 2.341769e-38
-0.29446507 0.2152442 0.93629032 2.341769e-38
-0.28695089 0.21766573 0.93638474 2.341769e-38
-0.30009049 0.22172859 0.93500006 2.341769e-38
-0.2945455 0.22471264 0.9358263 2.341769e-38
-0.28492036 0.22475906 0.93541181 2.341769e-38
-0.27748466 0.22669576 0.93684638 2.341769e-38
-0.29130527 0.23480217 0.93227285 2.341769e-38
-0.28464702 0.23440784 0.93314677 2.341769e-38
-0.27528343 0.23550905 0.93544108 2.341769e-38
-0.29178101 0.24420589 0.93242872 2.341769e-38
-0.28486097 0.24471952 0.93158609 2.341769e-38
-0.27502227 0.24476555 0.93282843 2.341769e-38
-0.26566166 0.2450451 0.93525708 2.341769e-38
-0.25814459 0.24654785 0.93660021 2.341769e-38
-0.29160896 0.25184897 0.93180007 2.341769e-38
-0.28769255 0.25225255 0.93028593 2.341769e-38
-0.27232668 0.25230536 0.93020022 2.341769e-38
-0.26443529 0.25453243 0.93260592 2.341769e-38
-0.25555912 0.25544557 0.9360323 2.341769e-38
-0.24696645 0.25856739 0.93700016 2.3417673e-38
-0.26272175 0.26272056 0.93156266 2.341769e-38
-0.25507024 0.26484454 0.93319428 2.341769e-38
-0.24496491 0.26545331 0.93533337 2.1665251e-38
-0.23818879 0.26724875 0.93600005 1.4544897e-38
-0.28137526 0.27782479 0.93200004 2.341769e-38
-0.27535939 0.27802193 0.93166679 2.341769e-38
-0.26363263 0.27649459 0.93125015 2.341769e-38
-0.2550492 0.27460495 0.93082362 2.341769e-38
-0.24506895 0.2752597 0.93233299 2.341769e-38
-0.23778428 0.27548352 0.93511128 1.677245e-38
-0.27159527 0.28050002 0.93500006 2.341769e-38
-0.26138145 0.28182811 0.93350005 2.341769e-38
-0.25480068 0.28248072 0.93069249 2.341769e-38
-0.24408132 0.28423169 0.93166655 2.341769e-38
-0.23522627 0.28530139 0.93440002 1.7696862e-38
-0.22616901 0.28744581 0.93700016 1.9542633e-38
-0.24115089 0.29154631 0.93160003 2.341769e-38
-0.23455308 0.29434904 0.93356228 2.1105951e-38
-0.22473116 0.29429287 0.93638897 1.7607964e-38
-0.21863335 0.29627049 0.93700004 2.341769e-38
-0.23293349 0.30130339 0.93233347 2.240425e-38
-0.22523908 0.30491957 0.93395346 1.5667147e-38
-0.21706372 0.30602923 0.93622237 2.3048913e-38
-0.22380902 0.31513178 0.93096447 1.575575e-38
-0.21604191 0.31552756 0.93469703 2.1204656e-38
-0.22425447 0.32463539 0.93000025 2.0003938e-38
-0.21453398 0.32478613 0.93191653 1.9263864e-38
-0.2132387 0.33164781 0.93060017 1.8710703e-38
-0.070723817 -0.3822667 0.94000006 9.2161018e-40
-0.068933338 -0.38047621 0.94000006 7.3865945e-40
-0.065209866 -0.37516066 0.94411987 6.4573935e-40
-0.059980955 -0.37152383 0.94000006 6.4537642e-40
0.015348572 -0.37107432 0.94800007 8.5691111e-39
-0.060443573 -0.36807218 0.94725001 3.7023146e-40
-0.055310849 -0.36426488 0.94369239 3.695154e-40
-0.047089528 -0.36113906 0.94000006 3.7022586e-40
0.0065239458 -0.36262628 0.94014311 9.9516868e-39
0.014516566 -0.36506718 0.94465214 4.146281e-39
-0.051792145 -0.35893074 0.94575 4.6098796e-40
-0.044447713 -0.35647765 0.94403124 3.6987273e-40
-0.035179242 -0.35505596 0.94426471 2.7767149e-40
-0.025433481 -0.35415921 0.94534373 2.7694983e-40
-0.015463584 -0.35517406 0.94438112 5.5209758e-40
-0.0048520952 -0.35469782 0.94336689 8.3858114e-39
0.0041228579 -0.3566815 0.94100028 6.2703608e-39
0.011700001 -0.35910001 0.94500005 8.2983634e-40
0.24440001 -0.35003811 0.94000006 1.8474859e-40
-0.033766862 -0.34904459 0.94800007 3.6987413e-40
-0.024119189 -0.34863189 0.94800007 6.4465895e-40
-0.014445716 -0.34760001 0.94800007 9.4914555e-39
-0.0027085717 -0.34940574 0.94800013 6.4864284e-40
0.2073586 -0.34081861 0.94050002 3.6878672e-40
0.21527633 -0.34108779 0.94071448 2.7658689e-40
0.22537181 -0.34274942 0.94121069 2.7694562e-40
0.23482943 -0.34435219 0.94352776 1.847612e-40
0.24509715 -0.34507012 0.94290924 1.8511013e-40
0.25431943 -0.34469858 0.94300014 1.8510872e-40
0.26490888 -0.34482616 0.94290012 9.2914496e-41
0.27479672 -0.34474882 0.94311768 1.8511153e-40
0.28538761 -0.34426343 0.94365501 1.8474999e-40
0.29490626 -0.34410024 0.94337922 1.847584e-40
0.30156666 -0.34548002 0.94099998 2.7660511e-40
0.14502859 -0.33034289 0.94000006 1.8582759e-40
0.15845716 -0.33034289 0.94000006 1.8582619e-40
0.16472381 -0.33034289 0.94000006 2.7694702e-40
0.17631014 -0.33134064 0.94145459 1.8546746e-40
0.18501547 -0.33230722 0.9430455 2.7694562e-40
0.19553037 -0.3335095 0.94411546 1.84757e-40
0.20491903 -0.33590889 0.94370836 1.8511853e-40
0.21503489 -0.33749568 0.94472218 1.8474999e-40
0.22413091 -0.33811748 0.94581813 2.7695123e-40
0.28620574 -0.33857146 0.94800007 2.7658409e-40
0.1367573 -0.32634863 0.9402858 2.7766729e-40
0.14519528 -0.32679453 0.94234776 1.8547586e-40
0.15502967 -0.32659271 0.94247621 1.8511573e-40
0.16479433 -0.32650843 0.94152194 2.7694702e-40
0.1747351 -0.32735509 0.94516671 2.7694842e-40
0.18579048 -0.325441 0.94700003 1.8511153e-40
0.19230857 -0.32773715 0.94800007 1.8511153e-40
0.18570858 -0.31848574 0.94200003 1.8511433e-40
0.027165718 -0.1715232 0.94733346 1.1791639e-38
0.034751873 -0.17196023 0.94684619 3.4980417e-39
0.044207148 -0.17095643 0.94725007 2.3992514e-39
0.060491432 -0.17154287 0.94800007 2.3971452e-39
0.017145716 -0.16257022 0.94757146 1.7137213e-38
0.025151365 -0.16442978 0.9434287 1.4925222e-38
0.03494972 -0.16578476 0.94093353 6.9056605e-39
0.045095988 -0.16579492 0.94205266 2.6754964e-39
0.054933235 -0.16413346 0.94389462 2.4911009e-39
0.061842859 -0.16521482 0.946091 2.0290592e-39
0.0091404095 -0.1538547 0.94628578 1.8244651e-38
0.014727905 -0.15611078 0.94309998 1.759819e-38
0.022760954 -0.15826765 0.9410001 1.621561e-38
0.059085719 -0.15756193 0.94000006 2.9538727e-39
0.065581001 -0.15571986 0.94454998 2.6772998e-39
0.073715724 -0.15362574 0.94537491 2.675502e-39
0.080100007 -0.15030001 0.94500005 1.1999921e-39
0.0065044053 -0.14489037 0.94274998 1.7968428e-38
0.011638096 -0.14950477 0.94000006 1.815388e-38
0.068038099 -0.14652066 0.94000006 2.2210216e-39
0.074462064 -0.14490549 0.94369233 4.7977783e-39
0.082350008 -0.144225 0.94499993 2.3045418e-39
-0.0016742857 -0.13402778 0.94628578 1.7323418e-38
0.0018938627 -0.13661239 0.94300008 1.7323051e-38
0.068674609 -0.13315018 0.94466674 2.6737363e-39
0.074988142 -0.13439216 0.94245446 3.6885791e-39
0.083950281 -0.1350618 0.94333327 1.9382915e-39
-0.0053426065 -0.12536377 0.94268435 1.7875144e-38
0.00089523813 -0.12980953 0.94000006 1.74138e-38
0.069145717 -0.12536764 0.94700015 7.7430751e-39
0.075307749 -0.12462471 0.94140017 5.3470354e-39
0.084673211 -0.12485661 0.94057167 3.3215734e-39
-0.012577715 -0.11408801 0.94320005 1.8982935e-38
-0.0080583077 -0.11460435 0.9401114 1.962902e-38
0.068933338 -0.1172762 0.94000006 7.9184041e-39
0.074202262 -0.11729203 0.94012529 5.1640357e-39
-0.013180953 -0.10557552 0.94057149 1.8433364e-38
-0.0084152389 -0.10760763 0.94000006 1.963263e-38
0.074015416 -0.10453057 0.94254559 5.5310512e-39
-0.015219049 -0.098476201 0.94000006 1.8435885e-38
0.076542862 -0.098028578 0.94000006 7.4693188e-39
-0.52456003 0.14174858 0.94800007 2.341769e-38
-0.49515057 0.14729916 0.94770002 1.7616243e-38
-0.504336 0.15700686 0.94800007 2.0746192e-38
-0.49577469 0.15515885 0.94590479 1.9261743e-38
-0.48969528 0.15129524 0.94000006 1.3458515e-38
-0.46136004 0.1561943 0.94800007 1.2071662e-38
-0.45575613 0.1564118 0.94387501 1.4482359e-38
-0.32180414 0.15567838 0.94800007 2.341769e-38
-0.31528434 0.15809286 0.94778574 2.341769e-38
-0.30968001 0.15980573 0.94800007 2.341769e-38
-0.51011431 0.1625143 0.94800007 1.2720564e-38
-0.50349343 0.16386858 0.94800007 1.7616609e-38
-0.4960179 0.16448916 0.94594735 1.7518312e-38
-0.32087547 0.16486172 0.94800007 2.341769e-38
-0.31480962 0.16503003 0.94649994 2.341769e-38
-0.30744573 0.16639124 0.9475385 2.341769e-38
-0.49747431 0.17064001 0.94800007 2.1856487e-38
-0.31323978 0.17415012 0.94407678 2.341769e-38
-0.30509278 0.17456098 0.94603109 2.341769e-38
-0.2967653 0.17550604 0.94755554 2.341769e-38
-0.31198704 0.18343496 0.94238466 2.341769e-38
-0.30493382 0.18512554 0.94252926 2.341769e-38
-0.29593155 0.18579759 0.94649988 2.341769e-38
-0.28500149 0.18669081 0.94733334 2.341769e-38
-0.27808002 0.1877943 0.94800007 2.341769e-38
-0.31130859 0.19109145 0.94200003 2.341769e-38
-0.30472323 0.19501987 0.94174993 2.341769e-38
-0.2952449 0.19486123 0.94289267 2.341769e-38
-0.28538528 0.19511519 0.94469994 2.341769e-38
-0.27667993 0.19569135 0.94722217 2.341769e-38
-0.30348572 0.20321904 0.94000012 2.341769e-38
-0.29515943 0.20405093 0.94075024 2.341769e-38
-0.28538212 0.20461282 0.94230545 2.341769e-38
-0.27594411 0.20540884 0.94597054 2.341769e-38
-0.26774731 0.20715557 0.94800007 2.3233302e-38
-0.29095241 0.21038097 0.94000006 2.341769e-38
-0.2841236 0.21403034 0.94088906 2.341769e-38
-0.27455273 0.21525863 0.94251359 2.341769e-38
-0.26518694 0.21487948 0.94597286 2.3417326e-38
-0.25747845 0.21693198 0.94800007 1.5287206e-38
-0.28020954 0.22112383 0.94000006 2.341769e-38
-0.27351436 0.2245419 0.94111997 2.341769e-38
-0.26403117 0.22472268 0.94327253 2.341769e-38
-0.25475496 0.22553548 0.94584358 1.731911e-38
-0.24879287 0.22806001 0.94650006 1.4187355e-38
-0.27161527 0.23222478 0.94000006 2.341769e-38
-0.26509935 0.23464791 0.9403891 2.341769e-38
-0.25502548 0.23527074 0.9428888 2.1660197e-38
-0.24541038 0.23500158 0.94635469 1.5941593e-38
-0.23925716 0.23745143 0.94800013 2.1842815e-38
-0.49205717 0.24828573 0.94800007 2.1213638e-38
-0.26302096 0.24153526 0.94000006 2.341769e-38
-0.25399774 0.24477914 0.94121444 2.3049626e-38
-0.24485773 0.24438012 0.9442057 1.5379766e-38
-0.23767719 0.24535301 0.94460005 2.137933e-38
-0.49418613 0.25331372 0.94699997 2.341769e-38
-0.48581859 0.25478822 0.94575 2.341769e-38
-0.47941718 0.25731429 0.94800007 2.341769e-38
-0.25165907 0.25245568 0.94111103 2.341769e-38
-0.24473998 0.25432175 0.94131035 1.602837e-38
-0.23645511 0.25520113 0.94479299 1.925813e-38
-0.2417143 0.26051429 0.94000006 1.0418428e-38
-0.23317382 0.2744275 0.94166672 1.6676667e-38
-0.08302667 -0.39141145 0.95800006 9.2233605e-40
-0.07664001 -0.39141145 0.95800006 9.2126686e-40
-0.082919329 -0.38475642 0.95800006 8.3014883e-40
-0.075708538 -0.38489813 0.95579171 8.2977048e-40
0.022316191 -0.38214526 0.95650005 1.1052658e-39
-0.08208251 -0.37598082 0.95762509 6.4683236e-40
-0.075636476 -0.37479618 0.95435715 8.2977608e-40
-0.067326367 -0.37224817 0.95099998 5.5389265e-40
0.018003132 -0.37362224 0.95185721 5.5266763e-39
0.023743039 -0.37650022 0.9543125 4.6205855e-40
-0.081201911 -0.36951432 0.95800006 6.4609668e-40
-0.074375719 -0.36808366 0.95564294 7.3758606e-40
-0.064446777 -0.36512247 0.95403576 4.6169842e-40
-0.058220763 -0.36147109 0.95220006 4.6062222e-40
0.018396828 -0.36341271 0.95000005 1.0145317e-39
0.021714289 -0.36823812 0.95000005 4.6206836e-40
-0.054753259 -0.35793734 0.95446163 4.6062222e-40
-0.045057006 -0.35311916 0.95353848 2.7803303e-40
-0.039007146 -0.35015476 0.95250005 4.6208658e-40
-0.024428573 -0.35014287 0.95000005 3.6986152e-40
-0.014229439 -0.35178789 0.94999993 6.0787935e-39
-0.0081428578 -0.3519524 0.94999993 1.1890697e-38
-0.034763969 -0.34821892 0.95216674 3.7023987e-40
-0.026245812 -0.34753802 0.95029992 2.7695123e-40
-0.017208574 -0.34779435 0.95100009 7.0961404e-39
-0.0081428578 -0.34833336 0.95000005 6.7309844e-39
0.2379524 -0.3410953 0.95000005 1.8548567e-40
0.24618968 -0.34088439 0.95085722 1.8511713e-40
0.2554563 -0.34170243 0.95074993 1.8511433e-40
0.26511234 -0.34176993 0.95158821 1.8511013e-40
0.27538273 -0.34211609 0.95116669 1.847598e-40
0.28379369 -0.34169841 0.94999999 2.7622956e-40
0.29647017 -0.34145337 0.95100009 1.8475279e-40
0.30128574 -0.34290478 0.95000005 1.8511853e-40
0.19814289 -0.3302381 0.95000005 3.6878953e-40
0.20627916 -0.33223021 0.95092309 2.7694702e-40
0.21551751 -0.33323711 0.95081836 1.8511153e-40
0.22555242 -0.33357117 0.95225936 1.8511293e-40
0.23464048 -0.33572975 0.95309389 1.8547026e-40
0.24482112 -0.33682775 0.95392007 2.7694983e-40
0.25463098 -0.33706427 0.95505261 1.8511013e-40
0.26575589 -0.33748281 0.95643759 1.8475279e-40
0.27499318 -0.33603013 0.95274085 1.847598e-40
0.2831172 -0.33744293 0.9506923 1.847584e-40
0.29133335 -0.33928573 0.95000005 3.6878252e-40
0.18532541 -0.32722229 0.94999993 2.7694562e-40
0.19533324 -0.32700744 0.95082337 2.765939e-40
0.20580781 -0.32804957 0.95272732 2.7659249e-40
0.21503742 -0.32913205 0.95490927 1.847556e-40
0.22432461 -0.32904178 0.95616674 2.7695963e-40
0.025836509 -0.18329382 0.9575001 9.0297683e-39
0.033706967 -0.18311578 0.95656258 1.3833072e-39
0.041057147 -0.18156382 0.95800006 1.7531981e-39
0.0082114292 -0.17152762 0.95800006 1.9170193e-38
0.0148966 -0.17508844 0.95642871 1.6675867e-38
0.024563085 -0.17611186 0.95199996 1.1330674e-38
0.035767384 -0.17702168 0.95074999 1.4765888e-39
0.045494743 -0.17614138 0.95261914 2.2137825e-39
0.054401148 -0.17476042 0.95370001 1.2911144e-39
0.0081858207 -0.16347198 0.95533341 1.8153167e-38
0.014137809 -0.166628 0.95190012 1.7691465e-38
0.020809526 -0.16919048 0.95000005 1.7131081e-38
0.056095239 -0.16919048 0.95000005 1.382245e-39
0.066880181 -0.16329376 0.95056242 2.9517203e-39
0.072200008 -0.1615905 0.94999999 3.3208588e-39
0.0046417993 -0.15507016 0.95466667 1.8429038e-38
-0.0027306965 -0.14362699 0.95492315 1.7692553e-38
0.0023155559 -0.14671303 0.95155555 1.8060977e-38
-0.01033508 -0.13496049 0.9575001 1.7323786e-38
-0.0059169759 -0.13529792 0.95117646 1.7231582e-38
-0.0095157148 -0.12822667 0.95150006 1.7413801e-38
0.073285721 -0.1022381 0.95000005 8.0206751e-39
-0.33119434 0.10674858 0.95800006 2.341769e-38
-0.32717982 0.1082084 0.95800012 2.341769e-38
-0.33191302 0.11559841 0.95700014 2.341769e-38
-0.32521349 0.11494834 0.95575005 2.341769e-38
-0.31788391 0.11797979 0.95700008 2.341769e-38
-0.33132556 0.12432461 0.95750016 2.341769e-38
-0.32474127 0.12462089 0.95511997 2.341769e-38
-0.3151218 0.12483783 0.95582765 2.341769e-38
-0.30893224 0.1257261 0.95800012 2.341769e-38
-0.53216612 0.13794298 0.95762509 2.341769e-38
-0.52398074 0.13732827 0.95600009 2.2957422e-38
-0.51423615 0.13565591 0.95279998 1.465986e-38
-0.50567538 0.1367383 0.9545418 1.8353082e-38
-0.4977684 0.13839924 0.95480007 1.1891214e-38
-0.33057201 0.13386458 0.95620006 2.341769e-38
-0.32465687 0.13466319 0.95435476 2.341769e-38
-0.31483936 0.13467096 0.95544446 2.341769e-38
-0.30530146 0.13593496 0.95691997 2.341769e-38
-0.29769295 0.13796777 0.95757157 2.341769e-38
-0.53394741 0.14495029 0.95455551 2.1759619e-38
-0.52440029 0.14511356 0.95248461 2.3234018e-38
-0.51473534 0.14490949 0.95119995 2.2864522e-38
-0.50566936 0.14482607 0.95128578 1.9826406e-38
-0.49455526 0.14366023 0.95130432 1.6047477e-38
-0.47181687 0.14795461 0.95700014 1.392632e-38
-0.46682814 0.14683591 0.95492315 1.742935e-38
-0.32428232 0.14454278 0.95222557 2.341769e-38
-0.31502247 0.14531982 0.95270944 2.341769e-38
-0.3053993 0.14489864 0.95360595 2.341769e-38
-0.29519042 0.14491205 0.95613796 2.341769e-38
-0.28922477 0.14598097 0.95800006 2.341769e-38
-0.54370499 0.15666637 0.95733345 2.2499328e-38
-0.53486258 0.15541868 0.95722234 2.0463852e-38
-0.52449912 0.15461093 0.95414281 2.0010443e-38
-0.51456571 0.15497105 0.95013058 1.6963675e-38
-0.50648582 0.15218097 0.94999993 2.212768e-38
-0.4817372 0.15966667 0.95800006 1.8545745e-38
-0.47383747 0.15513353 0.95610529 2.1114607e-38
-0.46478081 0.15434846 0.95231831 1.8075436e-38
-0.45830959 0.15437938 0.95166671 1.8998093e-38
-0.32191432 0.15326668 0.94999999 2.341769e-38
-0.3145304 0.15362427 0.95071429 2.341769e-38
-0.30503911 0.15487432 0.95403039 2.341769e-38
-0.29486313 0.15471311 0.95558345 2.341769e-38
-0.28532469 0.15605909 0.95692009 2.3141462e-38
-0.27712071 0.15840967 0.95671433 1.6115828e-38
-0.5422225 0.16426313 0.95481825 2.3233659e-38
-0.53446472 0.16482782 0.95526469 2.341769e-38
-0.52437824 0.16501278 0.95423812 2.341769e-38
-0.51501697 0.16493592 0.95131999 1.7787633e-38
-0.50722373 0.16693604 0.95027268 1.6604989e-38
-0.49490479 0.16919048 0.95000005 2.1670304e-38
-0.48314255 0.16670382 0.95730776 1.9268584e-38
-0.47519791 0.16365533 0.95500004 2.2036207e-38
-0.46690407 0.16107126 0.95120013 2.2402469e-38
