# .PCD v0.7 - Point Cloud Data file format
VERSION 0.7
FIELDS x y z rgb
SIZE 4 4 4 4
TYPE F F F F
COUNT 1 1 1 1
WIDTH 240
HEIGHT 1
VIEWPOINT 0 0 0 1 0 0 0
POINTS 240
DATA ascii
0.067436188 0.12800762 0.84800005 2.3418052e-38
0.075350866 0.12687697 0.84799987 2.3418052e-38
0.085240528 0.12767725 0.84800011 2.3418052e-38
0.092068575 0.12841144 0.84800005 2.3418052e-38
0.058058847 0.13738498 0.84800005 2.3418052e-38
0.06489867 0.13526809 0.8469457 2.3418052e-38
0.074992947 0.13466358 0.84671432 2.3418052e-38
0.085354909 0.13447206 0.84549987 2.3418052e-38
0.094971612 0.13511662 0.84746134 2.3418052e-38
0.10127544 0.13713373 0.84800005 2.3418052e-38
0.05582273 0.14536461 0.84779286 2.3418052e-38
0.064380959 0.14485721 0.84499979 2.3418052e-38
0.074842863 0.14485718 0.84499997 2.3418052e-38
0.085227206 0.14472306 0.84422225 2.3418052e-38
0.095153339 0.14514351 0.8466664 2.3418052e-38
0.10159848 0.14569448 0.84800005 2.3418052e-38
0.055569399 0.15508893 0.84799975 2.3418052e-38
0.06441167 0.15459132 0.84541643 2.3418052e-38
0.074829392 0.15448803 0.8448571 2.3418052e-38
0.084968254 0.1547557 0.8432501 2.3418052e-38
0.095181197 0.15486507 0.84691644 2.3418052e-38
0.10095239 0.15506287 0.84800005 2.3418052e-38
0.057837959 0.16394667 0.84800005 2.3418052e-38
0.064524375 0.16454594 0.8469165 2.3418052e-38
0.075085968 0.16473882 0.84539133 2.3418052e-38
0.085305944 0.16497754 0.84499985 2.3418052e-38
0.094784059 0.16429256 0.84743726 2.3418052e-38
0.10095239 0.16233143 0.84800005 2.3418052e-38
0.058956195 0.17040762 0.84800005 2.3418052e-38
0.065665647 0.17165013 0.84800005 2.3418052e-38
0.074806251 0.1732823 0.84751976 2.3418052e-38
0.085901313 0.17305073 0.84799987 2.3418052e-38
0.092183962 0.17202286 0.84800011 2.3418052e-38
0.057794116 0.11803725 0.8569091 2.3418052e-38
0.065317348 0.11584491 0.8557716 2.3418052e-38
0.074812219 0.11563076 0.85538906 2.3418052e-38
0.084765658 0.11654813 0.85580021 2.3418052e-38
0.093603827 0.11737996 0.85676187 2.3418052e-38
0.10050858 0.11848572 0.85800004 2.3418052e-38
0.0470527 0.12701677 0.85676193 2.3418052e-38
0.055169284 0.12493122 0.85482067 2.3418052e-38
0.064585485 0.12455523 0.85237497 2.3418052e-38
0.074364319 0.12257383 0.85115802 2.3418052e-38
0.085004792 0.1234964 0.85199994 2.3418052e-38
0.09503828 0.12463251 0.85333359 2.3418052e-38
0.10385078 0.12560388 0.85606265 2.3418052e-38
0.11148165 0.12852491 0.85799998 2.3418052e-38
0.038405716 0.13973144 0.85800004 2.3418052e-38
0.044928644 0.13535792 0.8555609 2.3418052e-38
0.054463752 0.13424051 0.85186672 2.3418052e-38
0.062009532 0.13098097 0.85000002 2.3418052e-38
0.099031761 0.13087302 0.85000008 2.3418052e-38
0.10508522 0.1346027 0.85237044 2.3418052e-38
0.1123075 0.13592508 0.8565715 2.3418052e-38
0.038471624 0.14600001 0.85706663 2.3418052e-38
0.045369733 0.14460689 0.85367578 2.3418052e-38
0.051659625 0.1439663 0.8502 2.3418052e-38
0.10670294 0.14461842 0.85185188 2.3418052e-38
0.11443964 0.14534998 0.85592324 2.3418052e-38
0.038671367 0.15452664 0.85666668 2.3418052e-38
0.045628667 0.15454669 0.8524211 2.3418052e-38
0.051000006 0.15526669 0.85000002 2.3418052e-38
0.10632841 0.15509945 0.85181254 2.3418052e-38
0.11495188 0.15489499 0.85600024 2.3418052e-38
0.039176192 0.16078953 0.85700005 2.3418052e-38
0.04547957 0.16470167 0.85502863 2.3418052e-38
0.053451598 0.16578783 0.85095656 2.3418052e-38
0.099166676 0.1679762 0.85000002 2.3418052e-38
0.10585883 0.16545828 0.85200012 2.3418052e-38
0.11432032 0.16454706 0.85615993 2.3418052e-38
0.04803858 0.17420788 0.85674995 2.3418052e-38
0.05508624 0.17474078 0.85282767 2.3418052e-38
0.06426841 0.17673269 0.85139149 2.3418052e-38
0.07418564 0.17835987 0.85090917 2.3418052e-38
0.084642351 0.17806536 0.85015398 2.3418052e-38
0.095849611 0.1756909 0.85155559 2.3418052e-38
0.10434029 0.17542981 0.85427594 2.3418052e-38
0.1123556 0.17405364 0.85715789 2.3418052e-38
0.049028575 0.18304002 0.85799992 2.3418052e-38
0.055621319 0.18376805 0.85683888 2.3418052e-38
0.065392032 0.18528605 0.85562515 2.3418052e-38
0.074864447 0.18554024 0.85444456 2.3418052e-38
0.084390424 0.18519209 0.85394126 2.3418052e-38
0.094525598 0.18497613 0.85560024 2.3418052e-38
0.10446526 0.18392079 0.85692865 2.3418052e-38
0.11101471 0.18315676 0.85799998 2.3418052e-38
0.059651431 0.19202858 0.85800004 2.3418052e-38
0.064952739 0.19220489 0.85787487 2.3418052e-38
0.075089529 0.19262193 0.85699999 2.3418052e-38
0.084710479 0.19202858 0.85799992 2.3418052e-38
0.093154296 0.1903943 0.85800004 2.3418052e-38
0.076554768 0.098072872 0.86900002 2.3418052e-38
0.08110667 0.097659051 0.86900002 2.3418052e-38
0.057247214 0.10871062 0.86757153 2.3418052e-38
0.065206096 0.10624162 0.8660304 2.3418052e-38
0.074913479 0.10473694 0.86570448 2.3418052e-38
0.084600963 0.10505852 0.86608106 2.3418052e-38
0.094462492 0.10767088 0.8670001 2.3418052e-38
0.10144254 0.10833366 0.86833334 2.3418052e-38
0.04653034 0.11658895 0.86590487 2.3418052e-38
0.054302454 0.11378997 0.86208564 2.3418052e-38
0.064959191 0.11084219 0.86028582 2.3418052e-38
0.076171428 0.11084446 0.86000007 2.3418052e-38
0.085180961 0.11139049 0.86000001 2.3418052e-38
0.096079044 0.11297744 0.86149991 2.3418052e-38
0.10518204 0.11524551 0.86381817 2.3418052e-38
0.11226883 0.11692149 0.86736381 2.3418052e-38
0.037403155 0.12681797 0.8668462 2.3418052e-38
0.043528747 0.12361652 0.86246425 2.3418052e-38
0.10716954 0.12173673 0.86044455 2.3418052e-38
0.11511604 0.12464024 0.86396557 2.3418052e-38
0.12187906 0.12849315 0.8682 2.3418052e-38
0.028208787 0.13681896 0.86833334 2.3418052e-38
0.034683425 0.13511676 0.86434275 2.3418052e-38
0.040133335 0.13104764 0.86000001 2.3418052e-38
0.11747044 0.13436431 0.86182362 2.3418052e-38
0.1230966 0.13548487 0.86744452 2.3418052e-38
0.027814446 0.14431034 0.86750001 2.3418052e-38
0.033393506 0.14472035 0.86255181 2.3418052e-38
0.11876191 0.14333335 0.86000007 2.3418052e-38
0.12411568 0.14547823 0.86537927 2.3418052e-38
0.028955556 0.1555343 0.86866677 2.3418052e-38
0.033214938 0.15525876 0.86256003 2.3418052e-38
0.12403801 0.15496434 0.86500013 2.3418052e-38
0.028966669 0.16221336 0.86900002 2.3418052e-38
0.03452779 0.16498044 0.86335295 2.3418052e-38
0.040479619 0.167656 0.86040002 2.3418052e-38
0.11876191 0.16626668 0.86000007 2.3418052e-38
0.12508474 0.16524553 0.86460525 2.3418052e-38
0.13144001 0.16698572 0.86800003 2.3418052e-38
0.035832729 0.17438261 0.86590916 2.3418052e-38
0.043047581 0.17565876 0.86134803 2.3418052e-38
0.11664684 0.17496811 0.8605001 2.3418052e-38
0.12328953 0.17259717 0.86300004 2.3418052e-38
0.038898099 0.18124859 0.86900002 2.3418052e-38
0.044545054 0.18248011 0.86310005 2.3418052e-38
0.054096512 0.1893467 0.86066675 2.3418052e-38
0.10601398 0.18907368 0.86066675 2.3418052e-38
0.11384763 0.18100953 0.86000001 2.3418052e-38
0.055469021 0.19321506 0.86329418 2.3418052e-38
0.065643534 0.19759192 0.86590004 2.3418052e-38
0.075327694 0.19774412 0.86484635 2.3418052e-38
0.085955635 0.19631808 0.86247063 2.3418052e-38
0.095633402 0.19538096 0.86334604 2.3418052e-38
0.10428944 0.19428162 0.86419052 2.3418052e-38
0.066044003 0.20144248 0.86900008 2.3418052e-38
0.075268574 0.20140953 0.86849999 2.3418052e-38
0.084684059 0.20221095 0.86749989 2.3418052e-38
0.09391389 0.20225799 0.86723518 2.3418052e-38
0.10069367 0.20166318 0.86900008 2.3418052e-38
0.058015242 0.09891858 0.87650001 2.3418052e-38
0.065265842 0.096479818 0.87395835 2.3418052e-38
0.073758893 0.095137551 0.8718335 2.3418052e-38
0.086680591 0.0964261 0.87233353 2.3418052e-38
0.09377484 0.09731257 0.87518764 2.3418052e-38
0.046834078 0.10841841 0.87644452 2.3418052e-38
0.054871604 0.10466655 0.87344831 2.3418052e-38
0.063144855 0.10162088 0.87136382 2.3418052e-38
0.088206038 0.10092541 0.87100005 2.3418052e-38
0.095026806 0.10261611 0.87195259 2.3418052e-38
0.10445076 0.10563497 0.87404764 2.3418052e-38
0.11195453 0.1086112 0.87725002 2.3418052e-38
0.037500061 0.11594376 0.87506258 2.3418052e-38
0.043324221 0.11351189 0.87242866 2.3418052e-38
0.050600957 0.11032668 0.87100005 2.3418052e-38
0.10709175 0.11041112 0.87166679 2.3418052e-38
0.11580708 0.11420924 0.87369573 2.3418052e-38
0.12215477 0.11755834 0.87700009 2.3418052e-38
0.028048735 0.12803096 0.87483346 2.3418052e-38
0.034140602 0.12445202 0.87262499 2.3418052e-38
0.11862192 0.12028096 0.87100005 2.3418052e-38
0.12466736 0.12466165 0.87307149 2.3418052e-38
0.13087429 0.12754858 0.87250006 2.3418052e-38
0.025984706 0.13409674 0.8731876 2.3418052e-38
0.031245401 0.13078827 0.87100005 2.3418052e-38
0.12755524 0.13406384 0.87100023 2.3418052e-38
0.13155034 0.13499212 0.87185735 2.3418052e-38
0.025067622 0.14565223 0.87481833 2.3418052e-38
0.12816143 0.14143381 0.87100005 2.3418052e-38
0.13300446 0.14463985 0.87283325 2.3418052e-38
0.025083441 0.15505753 0.87430441 2.3418052e-38
0.1285762 0.15760952 0.87100005 2.3418052e-38
0.1328904 0.15448377 0.87208337 2.3418052e-38
0.025813101 0.16490668 0.87450016 2.3418052e-38
0.1285762 0.16009811 0.87100005 2.3418052e-38
0.1327343 0.16188012 0.87166679 2.3418052e-38
0.028605558 0.17274748 0.87483335 2.3418052e-38
0.031521063 0.17591725 0.8735556 2.3418052e-38
0.036797818 0.18507627 0.87464714 2.3418052e-38
0.041832384 0.18617114 0.87266678 2.3418052e-38
0.03758667 0.19377431 0.87700003 2.3418052e-38
0.040833335 0.19166668 0.87500006 2.3418052e-38
0.063873336 0.19991525 0.87100005 2.3418052e-38
0.067467943 0.20433939 0.87100017 2.3418052e-38
0.074705668 0.20630497 0.87295246 2.3418052e-38
0.083599381 0.20706636 0.87200016 2.3418052e-38
0.10203143 0.20323335 0.87100005 2.3418052e-38
0.049388897 0.098495565 0.88900012 2.3418052e-38
0.05607624 0.096448876 0.88486373 2.3418052e-38
0.065188281 0.092511646 0.88369232 2.3418052e-38
0.098141678 0.096043095 0.88075006 2.3418052e-38
0.10408913 0.098192796 0.88375008 2.3418052e-38
0.039190955 0.10872524 0.88500005 2.3418052e-38
0.045526315 0.10466713 0.88344431 2.3418052e-38
0.051630002 0.10158049 0.88150007 2.3418052e-38
0.10741118 0.10267369 0.88172734 2.3418052e-38
0.11458196 0.10590502 0.88043469 2.3418052e-38
0.12152382 0.10811429 0.88000005 2.3418052e-38
0.02929467 0.11734801 0.88900006 2.3418052e-38
0.033835672 0.11407151 0.88427275 2.3418052e-38
0.11900953 0.11146668 0.88000005 2.3418052e-38
0.12420597 0.11424966 0.88080013 2.3418052e-38
0.028836736 0.12343348 0.88685721 2.3418052e-38
0.031723052 0.12135277 0.88120002 2.3418052e-38
0.017780002 0.13970003 0.88900012 2.3418052e-38
0.022475241 0.13518895 0.88423079 2.3418052e-38
0.017113768 0.14551283 0.88645452 2.3418052e-38
0.021767275 0.14489041 0.88218182 2.3418052e-38
0.017030045 0.15427059 0.88209105 2.3418052e-38
0.021371432 0.15337145 0.88000005 2.3418052e-38
0.018456932 0.16367492 0.88533336 2.3418052e-38
0.02139524 0.16529524 0.88100004 2.3418052e-38
0.024387062 0.17549823 0.88308328 2.3418052e-38
0.027146189 0.18398066 0.88249999 2.3418052e-38
0.032595314 0.18596353 0.88107699 2.3418052e-38
0.029566668 0.19260573 0.88700002 2.3418052e-38
0.034082495 0.19281879 0.88292319 2.3418052e-38
0.046080638 0.098126777 0.89422226 2.3418052e-38
0.053460002 0.095040008 0.89100003 2.3418052e-38
0.029700002 0.10946572 0.89100003 2.3418052e-38
0.036379367 0.10801049 0.89300007 2.3418052e-38
0.042107385 0.10272335 0.89324999 2.3418052e-38
0.027092729 0.1160169 0.89154541 2.3418052e-38
0.031397145 0.11116286 0.89100003 2.3418052e-38
0.01873143 0.12856573 0.89400005 2.3418052e-38
0.024854816 0.12543112 0.89322215 2.3418052e-38
0.01804 0.13434108 0.89137489 2.3418052e-38
0.022964766 0.13097145 0.89300001 2.3418052e-38
0.017820001 0.16547143 0.89100003 2.3418052e-38
0.019517144 0.17056286 0.89100003 2.3418052e-38
