# .PCD v0.7 - Point Cloud Data file format
VERSION 0.7
FIELDS x y z rgb
SIZE 4 4 4 4
TYPE F F F F
COUNT 1 1 1 1
WIDTH 240
HEIGHT 1
VIEWPOINT 0 0 0 1 0 0 0
POINTS 240
DATA ascii
0.068647623 0.12841144 0.84800005 2.3418052e-38
0.076723821 0.12639238 0.84799993 2.3418052e-38
0.084961526 0.12776534 0.84800005 2.3418052e-38
0.056719713 0.13785438 0.84800005 2.3418052e-38
0.064928822 0.13536914 0.8469165 2.3418052e-38
0.074994117 0.13466311 0.84671432 2.3418052e-38
0.085387319 0.1345188 0.8458094 2.3418052e-38
0.094341472 0.13620453 0.84767842 2.3418052e-38
0.10095239 0.13891047 0.84800005 2.3418052e-38
0.056494877 0.14440998 0.84799987 2.3418052e-38
0.064422943 0.144958 0.84558314 2.3418052e-38
0.074842855 0.14485714 0.84499997 2.3418052e-38
0.085293762 0.14483865 0.84488863 2.3418052e-38
0.095199138 0.14521568 0.84708297 2.3418052e-38
0.10168659 0.14559171 0.84800011 2.3418052e-38
0.058956198 0.15506285 0.84800005 2.3418052e-38
0.064543501 0.15491253 0.84716642 2.3418052e-38
0.074842855 0.15451428 0.84499997 2.3418052e-38
0.085304774 0.15451428 0.84499979 2.3418052e-38
0.094637327 0.15491444 0.84790295 2.3418052e-38
0.10095239 0.15344763 0.84800005 2.3418052e-38
0.058725454 0.16417742 0.84800011 2.3418052e-38
0.064609528 0.16475432 0.84799975 2.3418052e-38
0.075036809 0.16460401 0.84721404 2.3418052e-38
0.08539845 0.16445909 0.84705698 2.3418052e-38
0.093378723 0.16343452 0.84766656 2.3418052e-38
0.067032382 0.17040762 0.84800005 2.3418052e-38
0.076320007 0.17040762 0.84800005 2.3418052e-38
0.082377151 0.17040762 0.84800005 2.3418052e-38
0.068912387 0.10813525 0.85800004 2.3418052e-38
0.074360006 0.10813525 0.85799992 2.3418052e-38
0.056299869 0.11745797 0.85676187 2.3418052e-38
0.065353245 0.11502688 0.8551001 2.3418052e-38
0.074805491 0.11464181 0.85376185 2.3418052e-38
0.084574461 0.11465484 0.85385716 2.3418052e-38
0.093886495 0.11598831 0.85581255 2.3418052e-38
0.1009741 0.11858934 0.85640001 2.3418052e-38
0.047138475 0.12652101 0.85660881 2.3418052e-38
0.055194192 0.12509617 0.85400003 2.3418052e-38
0.06477426 0.12479895 0.85171419 2.3418052e-38
0.073247887 0.12352807 0.85027301 2.3418052e-38
0.085276768 0.12332696 0.8500669 2.3418052e-38
0.095433973 0.12504584 0.8512941 2.3418052e-38
0.10424619 0.12551926 0.85464299 2.3418052e-38
0.1109045 0.12769634 0.85714293 2.3418052e-38
0.03821376 0.13515684 0.85777771 2.3418052e-38
0.04489157 0.13517125 0.85487807 2.3418052e-38
0.054416601 0.13378397 0.85100007 2.3418052e-38
0.062333338 0.13114288 0.85000002 2.3418052e-38
0.097440556 0.13250314 0.85057151 2.3418052e-38
0.10502179 0.1347917 0.85260004 2.3418052e-38
0.11282104 0.1358019 0.85652179 2.3418052e-38
0.044992622 0.14484923 0.85444993 2.3418052e-38
0.052834924 0.14641589 0.85000014 2.3418052e-38
0.10677729 0.14453954 0.85244453 2.3418052e-38
0.11499512 0.14516859 0.85633367 2.3418052e-38
0.038405716 0.15280573 0.85800004 2.3418052e-38
0.044735607 0.15456781 0.85419047 2.3418052e-38
0.054164987 0.15534055 0.8505162 2.3418052e-38
0.099571437 0.15623811 0.85000002 2.3418052e-38
0.10600648 0.15522785 0.852 2.3418052e-38
0.11452243 0.15474164 0.85653853 2.3418052e-38
0.045703683 0.16436817 0.85571444 2.3418052e-38
0.054237179 0.16563229 0.85179323 2.3418052e-38
0.089857146 0.16919048 0.85000002 2.3418052e-38
0.097464353 0.16649017 0.85044461 2.3418052e-38
0.10526984 0.16515188 0.85321224 2.3418052e-38
0.11367328 0.16507737 0.85676938 2.3418052e-38
0.04827654 0.17271811 0.85654545 2.3418052e-38
0.055309024 0.1748838 0.85406697 2.3418052e-38
0.064897016 0.17475782 0.85289669 2.3418052e-38
0.074747778 0.17532423 0.85161304 2.3418052e-38
0.084880814 0.17535363 0.85160017 2.3418052e-38
0.094505258 0.17479496 0.85278571 2.3418052e-38
0.10441333 0.17500149 0.85541964 2.3418052e-38
0.11227642 0.17333299 0.8568235 2.3418052e-38
0.056141715 0.18098974 0.85680002 2.3418052e-38
0.065768391 0.18164217 0.85680002 2.3418052e-38
0.075109437 0.18324982 0.85630006 2.3418052e-38
0.084367126 0.18430437 0.85643482 2.3418052e-38
0.094666667 0.18198816 0.85688883 2.3418052e-38
0.10480881 0.1834781 0.85769224 2.3418052e-38
0.11031429 0.18058859 0.85800004 2.3418052e-38
0.066487856 0.098699763 0.86725003 2.3418052e-38
0.07513921 0.097500078 0.86699998 2.3418052e-38
0.08239112 0.097820334 0.86800003 2.3418052e-38
0.055261031 0.10761872 0.86721736 2.3418052e-38
0.064699359 0.10463937 0.86382502 2.3418052e-38
0.075811334 0.10390658 0.86211115 2.3418052e-38
0.085463151 0.10500235 0.86305398 2.3418052e-38
0.095002629 0.10509337 0.86465776 2.3418052e-38
0.10427144 0.10678 0.86682612 2.3418052e-38
0.11421144 0.10593525 0.86900002 2.3418052e-38
0.038808573 0.11972858 0.86700004 2.3418052e-38
0.045469645 0.11603209 0.86524993 2.3418052e-38
0.054299727 0.1129773 0.86170834 2.3418052e-38
0.061500005 0.11151905 0.86100006 2.3418052e-38
0.09718515 0.11209752 0.86040014 2.3418052e-38
0.10542705 0.11462715 0.86215144 2.3418052e-38
0.11398749 0.11576347 0.86651993 2.3418052e-38
0.037184197 0.12654027 0.86766672 2.3418052e-38
0.043289185 0.12396286 0.86291993 2.3418052e-38
0.10756334 0.12190381 0.8605001 2.3418052e-38
0.11541345 0.1245952 0.86365521 2.3418052e-38
0.12307647 0.12744425 0.86814296 2.3418052e-38
0.035671361 0.13538864 0.86535728 2.3418052e-38
0.040226668 0.13053143 0.86200005 2.3418052e-38
0.11738852 0.13345976 0.86113334 2.3418052e-38
0.12425175 0.13561621 0.86651862 2.3418052e-38
0.028966669 0.1473162 0.86900002 2.3418052e-38
0.034778818 0.14524686 0.86364692 2.3418052e-38
0.040133335 0.14579049 0.86000001 2.3418052e-38
0.11876191 0.14005715 0.86000001 2.3418052e-38
0.12476116 0.14510556 0.86511767 2.3418052e-38
0.028966669 0.15228191 0.86900002 2.3418052e-38
0.034176365 0.15506394 0.86396962 2.3418052e-38
0.11876191 0.15725715 0.86000001 2.3418052e-38
0.12418946 0.15500599 0.86628002 2.3418052e-38
0.035250343 0.16463593 0.86506891 2.3418052e-38
0.040628027 0.16684629 0.86057156 2.3418052e-38
0.11860682 0.16543947 0.8605715 2.3418052e-38
0.1237652 0.16435292 0.86453861 2.3418052e-38
0.036937967 0.17336951 0.86742866 2.3418052e-38
0.042864766 0.17477019 0.86377776 2.3418052e-38
0.11384763 0.17445715 0.86000001 2.3418052e-38
0.05774451 0.18638591 0.86281824 2.3418052e-38
0.065198295 0.18672973 0.86220008 2.3418052e-38
0.07530953 0.18835942 0.86140007 2.3418052e-38
0.086731702 0.18879484 0.86028588 2.3418052e-38
0.094651565 0.18731253 0.86100012 2.3418052e-38
0.10341907 0.18845202 0.86085725 2.3418052e-38
0.05862572 0.19156763 0.86700004 2.3418052e-38
0.064913228 0.1926021 0.8679412 2.3418052e-38
0.074701466 0.19446352 0.86640006 2.3418052e-38
0.085243113 0.19432278 0.86534786 2.3418052e-38
0.095624737 0.19458592 0.86686206 2.3418052e-38
0.10299541 0.19362067 0.86633337 2.3418052e-38
0.069403812 0.089472383 0.87800002 2.3418052e-38
0.075105362 0.088065356 0.87553859 2.3418052e-38
0.084379889 0.087496087 0.87287515 2.3418052e-38
0.090833336 0.088333338 0.87500006 2.3418052e-38
0.056825243 0.097674131 0.87533343 2.3418052e-38
0.064620778 0.095598474 0.8736192 2.3418052e-38
0.0741814 0.092757843 0.87415797 2.3418052e-38
0.085532956 0.093777336 0.87255555 2.3418052e-38
0.094461642 0.095881112 0.8738572 2.3418052e-38
0.10279102 0.097967952 0.87588894 2.3418052e-38
0.11288572 0.099506676 0.87800002 2.3418052e-38
0.046581611 0.10713529 0.87543762 2.3418052e-38
0.054261386 0.10262654 0.87255013 2.3418052e-38
0.060555242 0.10037239 0.87100005 2.3418052e-38
0.09622477 0.10037239 0.87100005 2.3418052e-38
0.10587779 0.10267575 0.87323087 2.3418052e-38
0.11433433 0.1051337 0.87289995 2.3418052e-38
0.12114786 0.10782786 0.87425005 2.3418052e-38
0.037480731 0.1165496 0.87461555 2.3418052e-38
0.043224134 0.11221826 0.87283349 2.3418052e-38
0.11705323 0.11188625 0.87166679 2.3418052e-38
0.12378755 0.11609313 0.87586969 2.3418052e-38
0.028900003 0.12547036 0.87414294 2.3418052e-38
0.03343381 0.12412113 0.87225008 2.3418052e-38
0.12569734 0.12347123 0.87354177 2.3418052e-38
0.13023524 0.1285762 0.87100005 2.3418052e-38
0.02754443 0.13500023 0.87341189 2.3418052e-38
0.032148454 0.13461013 0.87112522 2.3418052e-38
0.1285762 0.13272382 0.87100005 2.3418052e-38
0.13080049 0.13536668 0.8720001 2.3418052e-38
0.026190709 0.1450275 0.87376004 2.3418052e-38
0.030692384 0.14184858 0.87100005 2.3418052e-38
0.13291143 0.14453916 0.87222236 2.3418052e-38
0.02544025 0.15517245 0.87440753 2.3418052e-38
0.1285762 0.15678 0.87100005 2.3418052e-38
0.13252875 0.15451826 0.87204772 2.3418052e-38
0.027220899 0.16408366 0.87558836 2.3418052e-38
0.03074524 0.16619192 0.87250006 2.3418052e-38
0.1285762 0.16258667 0.87100005 2.3418052e-38
0.13134834 0.16205645 0.87150013 2.3418052e-38
0.029216669 0.1719624 0.87650001 2.3418052e-38
0.033301365 0.17532939 0.87428588 2.3418052e-38
0.037445478 0.1809931 0.87375003 2.3418052e-38
0.058111116 0.1967489 0.87166679 2.3418052e-38
0.064518243 0.19747075 0.87171447 2.3418052e-38
0.072832197 0.19925164 0.87100011 2.3418052e-38
0.084404059 0.1995005 0.87100017 2.3418052e-38
0.092906676 0.19950049 0.87100005 2.3418052e-38
0.10120191 0.19825621 0.87100005 2.3418052e-38
0.05831296 0.20151868 0.87220001 2.3418052e-38
0.064590313 0.20208006 0.87276483 2.3418052e-38
0.074903734 0.20308214 0.8739168 2.3418052e-38
0.085125513 0.20306043 0.87300009 2.3418052e-38
0.092450477 0.20199943 0.87140006 2.3418052e-38
0.065991215 0.088956937 0.88211119 2.3418052e-38
0.071238101 0.087161914 0.88000005 2.3418052e-38
0.093980007 0.088900007 0.88900006 2.3418052e-38
0.046519894 0.097570196 0.88635296 2.3418052e-38
0.054821696 0.095255248 0.88255554 2.3418052e-38
0.064641133 0.091968745 0.88154554 2.3418052e-38
0.09612608 0.091906548 0.88537502 2.3418052e-38
0.10505246 0.095872536 0.88246167 2.3418052e-38
0.11066058 0.098569915 0.88160002 2.3418052e-38
0.038986076 0.10705203 0.88512504 2.3418052e-38
0.044089686 0.10359978 0.88325 2.3418052e-38
0.10895239 0.10140953 0.88000005 2.3418052e-38
0.02837543 0.1175604 0.88679999 2.3418052e-38
0.034269642 0.11465251 0.88288009 2.3418052e-38
0.12748359 0.11444657 0.88000005 2.3418052e-38
0.026846478 0.12881905 0.88640004 2.3418052e-38
0.13158096 0.12152382 0.88000005 2.3418052e-38
0.017441336 0.13665202 0.88900006 2.3418052e-38
0.022972004 0.13482295 0.88370001 2.3418052e-38
0.016904766 0.14539279 0.88758326 2.3418052e-38
0.021771951 0.144155 0.88236368 2.3418052e-38
0.017654678 0.15405874 0.88282353 2.3418052e-38
0.020952385 0.15420954 0.88000005 2.3418052e-38
0.019287145 0.16268238 0.88050008 2.3418052e-38
0.022958694 0.16574773 0.88062507 2.3418052e-38
0.025491344 0.17394452 0.88154554 2.3418052e-38
0.031009525 0.1776762 0.88000005 2.3418052e-38
0.033720385 0.18203126 0.88080007 2.3418052e-38
0.038905717 0.19654383 0.8842001 2.3418052e-38
0.044855099 0.19620882 0.88534993 2.3418052e-38
0.044772383 0.20020859 0.88700002 2.3418052e-38
0.056969106 0.088250376 0.89577782 2.3418052e-38
0.062018696 0.087592036 0.89512503 2.3418052e-38
0.039141431 0.098712862 0.89350003 2.3418052e-38
0.044428196 0.096845724 0.89360011 2.3418052e-38
0.05428588 0.092558742 0.89300001 2.3418052e-38
0.060248576 0.090797149 0.89100003 2.3418052e-38
0.098434292 0.090797149 0.89100003 2.3418052e-38
0.10165905 0.092030488 0.89200008 2.3418052e-38
0.029400717 0.10864453 0.89475006 2.3418052e-38
0.03494247 0.10584125 0.89495462 2.3418052e-38
0.040017147 0.10217144 0.89400005 2.3418052e-38
0.02633165 0.11493737 0.89192307 2.3418052e-38
0.032292146 0.11131644 0.89225 2.3418052e-38
0.018338442 0.12666833 0.8937273 2.3418052e-38
0.024063081 0.12509562 0.89261556 2.3418052e-38
0.016998572 0.13174859 0.89250004 2.3418052e-38
0.04891143 0.093532383 0.90100002 2.3418052e-38
0.031820003 0.10406001 0.90300006 2.3418052e-38
