# .PCD v0.7 - Point Cloud Data file format
VERSION 0.7
FIELDS x y z rgb
SIZE 4 4 4 4
TYPE F F F F
COUNT 1 1 1 1
WIDTH 840
HEIGHT 1
VIEWPOINT 0 0 0 1 0 0 0
POINTS 840
DATA ascii
-0.15265429 0.18993621 0.52900004 1.7235237e-38
-0.16486661 0.19775529 0.52900022 2.341769e-38
-0.15546125 0.1967376 0.52900022 2.1019536e-38
-0.1470177 0.19625489 0.52857149 2.3141822e-38
-0.17230286 0.20516247 0.52900016 2.3233659e-38
-0.1647411 0.20519963 0.52839369 2.341769e-38
-0.15605375 0.2043356 0.52836567 2.0557849e-38
-0.14887573 0.20051621 0.52900004 2.3415168e-38
-0.18657747 0.21781367 0.52900004 2.341769e-38
-0.1735938 0.21577097 0.52847522 2.3325494e-38
-0.16488741 0.21504283 0.52769309 2.2864519e-38
-0.15760638 0.21431832 0.5280714 1.8898703e-38
-0.18792097 0.22251587 0.52900004 2.341769e-38
-0.17432205 0.22219792 0.52808577 2.341769e-38
-0.16486903 0.22180693 0.52710551 2.1480157e-38
-0.15910383 0.22184287 0.52700001 2.0561796e-38
-0.18530287 0.15977906 0.53600001 1.5044487e-38
-0.17504668 0.15964667 0.53900003 2.1375749e-38
-0.19205742 0.16755179 0.53522217 2.1745202e-38
-0.18454425 0.16513999 0.53410125 1.9815605e-38
-0.17512113 0.16525023 0.53435576 2.0648587e-38
-0.16562779 0.16568249 0.53396314 2.3141104e-38
-0.15882118 0.16747361 0.5325883 2.341769e-38
-0.20146142 0.17794892 0.5328334 2.341769e-38
-0.19478348 0.17551902 0.53327215 2.3325134e-38
-0.18520837 0.17510135 0.53260052 2.341769e-38
-0.17515604 0.17501223 0.53206658 2.3325494e-38
-0.16525666 0.17510766 0.53204852 2.2495379e-38
-0.1551875 0.17572221 0.5323922 2.2219155e-38
-0.14913622 0.17872605 0.5356667 2.341769e-38
-0.20362777 0.18563139 0.53318793 2.341769e-38
-0.19470344 0.18506877 0.53238928 2.341769e-38
-0.18497902 0.18487985 0.53202456 2.3325494e-38
-0.17529212 0.18491785 0.5319559 2.341769e-38
-0.16491897 0.18510339 0.53158325 2.341733e-38
-0.15450591 0.18489799 0.53104722 2.120465e-38
-0.14796716 0.1859307 0.53448886 2.323366e-38
-0.21276695 0.19606368 0.53307164 2.304855e-38
-0.20466362 0.19484253 0.53239393 2.3325494e-38
-0.19460717 0.19458744 0.53198063 2.3325494e-38
-0.18471411 0.19472031 0.53164202 2.341769e-38
-0.17515522 0.19484313 0.53152287 2.3325494e-38
-0.16481861 0.1936014 0.5306232 2.341769e-38
-0.15466264 0.19410487 0.53010958 1.9912116e-38
-0.14774086 0.19269282 0.53243244 2.1852532e-38
-0.21372782 0.2056624 0.5335502 2.341769e-38
-0.20486708 0.20494574 0.53192949 2.3325494e-38
-0.19492023 0.2047953 0.53186023 2.3325494e-38
-0.1848581 0.20486596 0.53165549 2.341769e-38
-0.17565815 0.20473003 0.5310427 2.3325494e-38
-0.16657144 0.20102145 0.53000003 2.341769e-38
-0.15177675 0.20656857 0.53160715 2.1297928e-38
-0.14845255 0.20558207 0.53329414 2.3417689e-38
-0.22195847 0.21666294 0.53519237 2.341769e-38
-0.21480827 0.2148338 0.53314918 2.3325494e-38
-0.20491003 0.21514057 0.53182429 2.3325494e-38
-0.19486928 0.2147821 0.53187907 2.341769e-38
-0.18483517 0.21503831 0.53105855 2.3325494e-38
-0.17703007 0.21310122 0.53058332 2.323366e-38
-0.15219845 0.21205367 0.53418183 2.3416612e-38
-0.2227733 0.22320203 0.53378963 2.341769e-38
-0.21507682 0.22317785 0.5329324 2.3325494e-38
-0.20479135 0.22283275 0.53184456 2.3325494e-38
-0.19520675 0.22277261 0.5311538 2.341769e-38
-0.18457235 0.22274679 0.5305112 2.3325494e-38
-0.1780127 0.22159049 0.53000003 2.341769e-38
-0.16152382 0.22461906 0.53000003 1.7798475e-38
-0.15793097 0.22120525 0.53149998 2.3415172e-38
0.068647623 0.12841144 0.84800005 9.1476764e-41
0.076723821 0.12639238 0.84799993 9.1476764e-41
0.084961526 0.12776534 0.84800005 9.1476764e-41
0.056719713 0.13785438 0.84800005 9.1476764e-41
0.064928822 0.13536914 0.8469165 9.1476764e-41
0.074994117 0.13466311 0.84671432 9.1476764e-41
0.085387319 0.1345188 0.8458094 9.1476764e-41
0.094341472 0.13620453 0.84767842 9.1476764e-41
0.10095239 0.13891047 0.84800005 9.1476764e-41
0.056494877 0.14440998 0.84799987 9.1476764e-41
0.064422943 0.144958 0.84558314 9.1476764e-41
0.074842855 0.14485714 0.84499997 9.1476764e-41
0.085293762 0.14483865 0.84488863 9.1476764e-41
0.095199138 0.14521568 0.84708297 9.1476764e-41
0.10168659 0.14559171 0.84800011 9.1476764e-41
0.058956198 0.15506285 0.84800005 9.1476764e-41
0.064543501 0.15491253 0.84716642 9.1476764e-41
0.074842855 0.15451428 0.84499997 9.1476764e-41
0.085304774 0.15451428 0.84499979 9.1476764e-41
0.094637327 0.15491444 0.84790295 9.1476764e-41
0.10095239 0.15344763 0.84800005 9.1476764e-41
0.058725454 0.16417742 0.84800011 9.1476764e-41
0.064609528 0.16475432 0.84799975 9.1476764e-41
0.075036809 0.16460401 0.84721404 9.1476764e-41
0.08539845 0.16445909 0.84705698 9.1476764e-41
0.093378723 0.16343452 0.84766656 9.1476764e-41
0.067032382 0.17040762 0.84800005 9.1476764e-41
0.076320007 0.17040762 0.84800005 9.1476764e-41
0.082377151 0.17040762 0.84800005 9.1476764e-41
0.068912387 0.10813525 0.85800004 9.1476764e-41
0.074360006 0.10813525 0.85799992 9.1476764e-41
0.056299869 0.11745797 0.85676187 9.1476764e-41
0.065353245 0.11502688 0.8551001 9.1476764e-41
0.074805491 0.11464181 0.85376185 9.1476764e-41
0.084574461 0.11465484 0.85385716 9.1476764e-41
0.093886495 0.11598831 0.85581255 9.1476764e-41
0.1009741 0.11858934 0.85640001 9.1476764e-41
0.047138475 0.12652101 0.85660881 9.1476764e-41
0.055194192 0.12509617 0.85400003 9.1476764e-41
0.06477426 0.12479895 0.85171419 9.1476764e-41
0.073247887 0.12352807 0.85027301 9.1476764e-41
0.085276768 0.12332696 0.8500669 9.1476764e-41
0.095433973 0.12504584 0.8512941 9.1476764e-41
0.10424619 0.12551926 0.85464299 9.1476764e-41
0.1109045 0.12769634 0.85714293 9.1476764e-41
0.03821376 0.13515684 0.85777771 9.1476764e-41
0.04489157 0.13517125 0.85487807 9.1476764e-41
0.054416601 0.13378397 0.85100007 9.1476764e-41
0.062333338 0.13114288 0.85000002 9.1476764e-41
0.097440556 0.13250314 0.85057151 9.1476764e-41
0.10502179 0.1347917 0.85260004 9.1476764e-41
0.11282104 0.1358019 0.85652179 9.1476764e-41
0.044992622 0.14484923 0.85444993 9.1476764e-41
0.052834924 0.14641589 0.85000014 9.1476764e-41
0.10677729 0.14453954 0.85244453 9.1476764e-41
0.11499512 0.14516859 0.85633367 9.1476764e-41
0.038405716 0.15280573 0.85800004 9.1476764e-41
0.044735607 0.15456781 0.85419047 9.1476764e-41
0.054164987 0.15534055 0.8505162 9.1476764e-41
0.099571437 0.15623811 0.85000002 9.1476764e-41
0.10600648 0.15522785 0.852 9.1476764e-41
0.11452243 0.15474164 0.85653853 9.1476764e-41
0.045703683 0.16436817 0.85571444 9.1476764e-41
0.054237179 0.16563229 0.85179323 9.1476764e-41
0.089857146 0.16919048 0.85000002 9.1476764e-41
0.097464353 0.16649017 0.85044461 9.1476764e-41
0.10526984 0.16515188 0.85321224 9.1476764e-41
0.11367328 0.16507737 0.85676938 9.1476764e-41
0.04827654 0.17271811 0.85654545 9.1476764e-41
0.055309024 0.1748838 0.85406697 9.1476764e-41
0.064897016 0.17475782 0.85289669 9.1476764e-41
0.074747778 0.17532423 0.85161304 9.1476764e-41
0.084880814 0.17535363 0.85160017 9.1476764e-41
0.094505258 0.17479496 0.85278571 9.1476764e-41
0.10441333 0.17500149 0.85541964 9.1476764e-41
0.11227642 0.17333299 0.8568235 9.1476764e-41
0.056141715 0.18098974 0.85680002 9.1476764e-41
0.065768391 0.18164217 0.85680002 9.1476764e-41
0.075109437 0.18324982 0.85630006 9.1476764e-41
0.084367126 0.18430437 0.85643482 9.1476764e-41
0.094666667 0.18198816 0.85688883 9.1476764e-41
0.10480881 0.1834781 0.85769224 9.1476764e-41
0.11031429 0.18058859 0.85800004 9.1476764e-41
0.066487856 0.098699763 0.86725003 9.1476764e-41
0.07513921 0.097500078 0.86699998 9.1476764e-41
0.08239112 0.097820334 0.86800003 9.1476764e-41
0.055261031 0.10761872 0.86721736 9.1476764e-41
0.064699359 0.10463937 0.86382502 9.1476764e-41
0.075811334 0.10390658 0.86211115 9.1476764e-41
0.085463151 0.10500235 0.86305398 9.1476764e-41
0.095002629 0.10509337 0.86465776 9.1476764e-41
0.10427144 0.10678 0.86682612 9.1476764e-41
0.11421144 0.10593525 0.86900002 9.1476764e-41
0.038808573 0.11972858 0.86700004 9.1476764e-41
0.045469645 0.11603209 0.86524993 9.1476764e-41
0.054299727 0.1129773 0.86170834 9.1476764e-41
0.061500005 0.11151905 0.86100006 9.1476764e-41
0.09718515 0.11209752 0.86040014 9.1476764e-41
0.10542705 0.11462715 0.86215144 9.1476764e-41
0.11398749 0.11576347 0.86651993 9.1476764e-41
0.037184197 0.12654027 0.86766672 9.1476764e-41
0.043289185 0.12396286 0.86291993 9.1476764e-41
0.10756334 0.12190381 0.8605001 9.1476764e-41
0.11541345 0.1245952 0.86365521 9.1476764e-41
0.12307647 0.12744425 0.86814296 9.1476764e-41
0.035671361 0.13538864 0.86535728 9.1476764e-41
0.040226668 0.13053143 0.86200005 9.1476764e-41
0.11738852 0.13345976 0.86113334 9.1476764e-41
0.12425175 0.13561621 0.86651862 9.1476764e-41
0.028966669 0.1473162 0.86900002 9.1476764e-41
0.034778818 0.14524686 0.86364692 9.1476764e-41
0.040133335 0.14579049 0.86000001 9.1476764e-41
0.11876191 0.14005715 0.86000001 9.1476764e-41
0.12476116 0.14510556 0.86511767 9.1476764e-41
0.028966669 0.15228191 0.86900002 9.1476764e-41
0.034176365 0.15506394 0.86396962 9.1476764e-41
0.11876191 0.15725715 0.86000001 9.1476764e-41
0.12418946 0.15500599 0.86628002 9.1476764e-41
0.035250343 0.16463593 0.86506891 9.1476764e-41
0.040628027 0.16684629 0.86057156 9.1476764e-41
0.11860682 0.16543947 0.8605715 9.1476764e-41
0.1237652 0.16435292 0.86453861 9.1476764e-41
0.036937967 0.17336951 0.86742866 9.1476764e-41
0.042864766 0.17477019 0.86377776 9.1476764e-41
0.11384763 0.17445715 0.86000001 9.1476764e-41
0.05774451 0.18638591 0.86281824 9.1476764e-41
0.065198295 0.18672973 0.86220008 9.1476764e-41
0.07530953 0.18835942 0.86140007 9.1476764e-41
0.086731702 0.18879484 0.86028588 9.1476764e-41
0.094651565 0.18731253 0.86100012 9.1476764e-41
0.10341907 0.18845202 0.86085725 9.1476764e-41
0.05862572 0.19156763 0.86700004 9.1476764e-41
0.064913228 0.1926021 0.8679412 9.1476764e-41
0.074701466 0.19446352 0.86640006 9.1476764e-41
0.085243113 0.19432278 0.86534786 9.1476764e-41
0.095624737 0.19458592 0.86686206 9.1476764e-41
0.10299541 0.19362067 0.86633337 9.1476764e-41
0.069403812 0.089472383 0.87800002 9.1476764e-41
0.075105362 0.088065356 0.87553859 9.1476764e-41
0.084379889 0.087496087 0.87287515 9.1476764e-41
0.090833336 0.088333338 0.87500006 9.1476764e-41
0.056825243 0.097674131 0.87533343 9.1476764e-41
0.064620778 0.095598474 0.8736192 9.1476764e-41
0.0741814 0.092757843 0.87415797 9.1476764e-41
0.085532956 0.093777336 0.87255555 9.1476764e-41
0.094461642 0.095881112 0.8738572 9.1476764e-41
0.10279102 0.097967952 0.87588894 9.1476764e-41
0.11288572 0.099506676 0.87800002 9.1476764e-41
0.046581611 0.10713529 0.87543762 9.1476764e-41
0.054261386 0.10262654 0.87255013 9.1476764e-41
0.060555242 0.10037239 0.87100005 9.1476764e-41
0.09622477 0.10037239 0.87100005 9.1476764e-41
0.10587779 0.10267575 0.87323087 9.1476764e-41
0.11433433 0.1051337 0.87289995 9.1476764e-41
0.12114786 0.10782786 0.87425005 9.1476764e-41
0.037480731 0.1165496 0.87461555 9.1476764e-41
0.043224134 0.11221826 0.87283349 9.1476764e-41
0.11705323 0.11188625 0.87166679 9.1476764e-41
0.12378755 0.11609313 0.87586969 9.1476764e-41
0.028900003 0.12547036 0.87414294 9.1476764e-41
0.03343381 0.12412113 0.87225008 9.1476764e-41
0.12569734 0.12347123 0.87354177 9.1476764e-41
0.13023524 0.1285762 0.87100005 9.1476764e-41
0.02754443 0.13500023 0.87341189 9.1476764e-41
0.032148454 0.13461013 0.87112522 9.1476764e-41
0.1285762 0.13272382 0.87100005 9.1476764e-41
0.13080049 0.13536668 0.8720001 9.1476764e-41
0.026190709 0.1450275 0.87376004 9.1476764e-41
0.030692384 0.14184858 0.87100005 9.1476764e-41
0.13291143 0.14453916 0.87222236 9.1476764e-41
0.02544025 0.15517245 0.87440753 9.1476764e-41
0.1285762 0.15678 0.87100005 9.1476764e-41
0.13252875 0.15451826 0.87204772 9.1476764e-41
0.027220899 0.16408366 0.87558836 9.1476764e-41
0.03074524 0.16619192 0.87250006 9.1476764e-41
0.1285762 0.16258667 0.87100005 9.1476764e-41
0.13134834 0.16205645 0.87150013 9.1476764e-41
0.029216669 0.1719624 0.87650001 9.1476764e-41
0.033301365 0.17532939 0.87428588 9.1476764e-41
0.037445478 0.1809931 0.87375003 9.1476764e-41
0.058111116 0.1967489 0.87166679 9.1476764e-41
0.064518243 0.19747075 0.87171447 9.1476764e-41
0.072832197 0.19925164 0.87100011 9.1476764e-41
0.084404059 0.1995005 0.87100017 9.1476764e-41
0.092906676 0.19950049 0.87100005 9.1476764e-41
0.10120191 0.19825621 0.87100005 9.1476764e-41
0.05831296 0.20151868 0.87220001 9.1476764e-41
0.064590313 0.20208006 0.87276483 9.1476764e-41
0.074903734 0.20308214 0.8739168 9.1476764e-41
0.085125513 0.20306043 0.87300009 9.1476764e-41
0.092450477 0.20199943 0.87140006 9.1476764e-41
0.065991215 0.088956937 0.88211119 9.1476764e-41
0.071238101 0.087161914 0.88000005 9.1476764e-41
0.093980007 0.088900007 0.88900006 9.1476764e-41
0.046519894 0.097570196 0.88635296 9.1476764e-41
0.054821696 0.095255248 0.88255554 9.1476764e-41
0.064641133 0.091968745 0.88154554 9.1476764e-41
0.09612608 0.091906548 0.88537502 9.1476764e-41
0.10505246 0.095872536 0.88246167 9.1476764e-41
0.11066058 0.098569915 0.88160002 9.1476764e-41
0.038986076 0.10705203 0.88512504 9.1476764e-41
0.044089686 0.10359978 0.88325 9.1476764e-41
0.10895239 0.10140953 0.88000005 9.1476764e-41
0.02837543 0.1175604 0.88679999 9.1476764e-41
0.034269642 0.11465251 0.88288009 9.1476764e-41
0.12748359 0.11444657 0.88000005 9.1476764e-41
0.026846478 0.12881905 0.88640004 9.1476764e-41
0.13158096 0.12152382 0.88000005 9.1476764e-41
0.017441336 0.13665202 0.88900006 9.1476764e-41
0.022972004 0.13482295 0.88370001 9.1476764e-41
0.016904766 0.14539279 0.88758326 9.1476764e-41
0.021771951 0.144155 0.88236368 9.1476764e-41
0.017654678 0.15405874 0.88282353 9.1476764e-41
0.020952385 0.15420954 0.88000005 9.1476764e-41
0.019287145 0.16268238 0.88050008 9.1476764e-41
0.022958694 0.16574773 0.88062507 9.1476764e-41
0.025491344 0.17394452 0.88154554 9.1476764e-41
0.031009525 0.1776762 0.88000005 9.1476764e-41
0.033720385 0.18203126 0.88080007 9.1476764e-41
0.038905717 0.19654383 0.8842001 9.1476764e-41
0.044855099 0.19620882 0.88534993 9.1476764e-41
0.044772383 0.20020859 0.88700002 9.1476764e-41
0.056969106 0.088250376 0.89577782 9.1476764e-41
0.062018696 0.087592036 0.89512503 9.1476764e-41
0.039141431 0.098712862 0.89350003 9.1476764e-41
0.044428196 0.096845724 0.89360011 9.1476764e-41
0.05428588 0.092558742 0.89300001 9.1476764e-41
0.060248576 0.090797149 0.89100003 9.1476764e-41
0.098434292 0.090797149 0.89100003 9.1476764e-41
0.10165905 0.092030488 0.89200008 9.1476764e-41
0.029400717 0.10864453 0.89475006 9.1476764e-41
0.03494247 0.10584125 0.89495462 9.1476764e-41
0.040017147 0.10217144 0.89400005 9.1476764e-41
0.02633165 0.11493737 0.89192307 9.1476764e-41
0.032292146 0.11131644 0.89225 9.1476764e-41
0.018338442 0.12666833 0.8937273 9.1476764e-41
0.024063081 0.12509562 0.89261556 9.1476764e-41
0.016998572 0.13174859 0.89250004 9.1476764e-41
0.04891143 0.093532383 0.90100002 9.1476764e-41
0.031820003 0.10406001 0.90300006 9.1476764e-41
-0.22137907 0.34849906 0.90800005 2.341769e-38
0.41882002 0.35776001 0.90300006 1.217426e-38
0.42313415 0.35703239 0.90333331 1.3368822e-38
0.44693729 0.35565898 0.90504766 1.419605e-38
0.45445693 0.35433614 0.90622222 1.5676938e-38
0.33739781 0.30595779 0.91700006 1.5027228e-38
-0.23230669 0.33972669 0.91700006 2.341769e-38
-0.22466502 0.33929002 0.91699994 2.341769e-38
-0.21920668 0.33972669 0.91700006 2.341769e-38
-0.23333853 0.34549189 0.91481835 2.341769e-38
-0.22512297 0.34465489 0.9139396 2.341769e-38
-0.21732351 0.34347102 0.91506249 2.341696e-38
-0.23154762 0.35080194 0.91400003 2.341769e-38
-0.22781526 0.35041812 0.91300005 2.341769e-38
-0.27633429 0.24984859 0.92700005 2.341769e-38
-0.28439876 0.25688264 0.92595005 2.341769e-38
-0.27550974 0.25589231 0.92603028 2.341769e-38
-0.2680943 0.25632292 0.92700005 2.341769e-38
-0.28177133 0.26287085 0.92312503 2.341769e-38
-0.27462617 0.2649115 0.92470968 2.341769e-38
-0.2660017 0.26543862 0.92644 2.341769e-38
-0.28102383 0.27397621 0.92500007 2.341769e-38
-0.27560833 0.27328497 0.92618191 2.341769e-38
-0.26599225 0.27267674 0.92700011 2.341769e-38
-0.25426289 0.27810001 0.92700005 2.341769e-38
-0.2516143 0.28428 0.92700005 2.341769e-38
-0.24697068 0.28563032 0.92680007 2.341769e-38
-0.24102001 0.29222575 0.92700005 2.341769e-38
-0.23314564 0.30528083 0.92466676 2.341769e-38
-0.22759484 0.30741987 0.92653859 2.1568371e-38
-0.23359783 0.31555423 0.92373687 2.341769e-38
-0.22568199 0.31530249 0.92514277 2.1105952e-38
-0.21947829 0.31588632 0.92700005 8.1200986e-39
-0.23152447 0.32109019 0.92200011 2.341769e-38
-0.22519639 0.32547015 0.92447227 2.2680486e-38
-0.21605502 0.32621497 0.92658347 1.5937986e-38
-0.20923716 0.32930574 0.92700005 2.341769e-38
-0.23272906 0.33635935 0.92213345 2.341769e-38
-0.22522712 0.33454612 0.9215315 2.341769e-38
-0.21515007 0.33500201 0.92313945 1.6863555e-38
-0.20882897 0.33659276 0.9252001 2.1204296e-38
-0.21358363 0.34226683 0.92122227 1.5573133e-38
-0.20916834 0.34259883 0.92475009 1.7422488e-38
-0.30337811 0.20671257 0.93656266 2.341769e-38
-0.29716286 0.20814787 0.93700016 2.341769e-38
-0.30089813 0.21178699 0.93566674 2.341769e-38
-0.29462984 0.2154288 0.93568742 2.341769e-38
-0.28777403 0.21629372 0.9363848 2.341769e-38
-0.29406437 0.22459133 0.9352107 2.341769e-38
-0.28525537 0.22497752 0.93572724 2.341769e-38
-0.27702111 0.22658356 0.9361431 2.341769e-38
-0.29143962 0.23474728 0.93230778 2.341769e-38
-0.28482091 0.23429485 0.93274975 2.341769e-38
-0.27532649 0.23527588 0.93458325 2.341769e-38
-0.26632831 0.2379314 0.93623102 2.341769e-38
-0.29208902 0.24414802 0.93220013 2.341769e-38
-0.28486523 0.24492954 0.93179983 2.341769e-38
-0.27511123 0.24493691 0.93183315 2.341769e-38
-0.26505956 0.24519283 0.93394428 2.341769e-38
-0.25867963 0.24529886 0.93660003 2.341769e-38
-0.2917119 0.25208575 0.93342865 2.341769e-38
-0.28540546 0.25231332 0.93066686 2.341769e-38
-0.27191433 0.2515429 0.93000019 2.341769e-38
-0.26396284 0.25445324 0.93232137 2.341769e-38
-0.2559801 0.25578403 0.93603712 2.341769e-38
-0.24683259 0.25932592 0.9370001 2.3417665e-38
-0.26261514 0.26292765 0.93176484 2.341769e-38
-0.25481296 0.26509973 0.93383771 2.341769e-38
-0.24482962 0.26572916 0.93563646 2.2124793e-38
-0.23770456 0.26748422 0.93620008 1.4084674e-38
-0.27368143 0.27767572 0.93150008 2.341769e-38
-0.26351625 0.27687904 0.93120021 2.341769e-38
-0.25511798 0.27416009 0.93064523 2.341769e-38
-0.24507557 0.27526781 0.93236089 2.341769e-38
-0.23579927 0.27551711 0.93545157 1.5201165e-38
-0.22889574 0.27708432 0.93700004 2.0556422e-38
-0.27159527 0.28050002 0.93500006 2.341769e-38
-0.26373833 0.28316632 0.93205571 2.341769e-38
-0.25470212 0.28376827 0.93053359 2.341769e-38
-0.24368823 0.28468901 0.93123072 2.341769e-38
-0.23476836 0.28455684 0.93353111 1.7236976e-38
-0.22605117 0.28550068 0.93510342 1.9631945e-38
-0.2193286 0.28810307 0.93540013 2.341769e-38
-0.24079113 0.2921994 0.9306668 2.341769e-38
-0.23484048 0.29427639 0.93149984 2.2862707e-38
-0.22585963 0.29468781 0.9328233 1.5482423e-38
-0.21885636 0.29512945 0.93518192 2.341769e-38
-0.23339887 0.3007406 0.93040007 2.341768e-38
-0.2243779 0.30442813 0.93193531 1.3732132e-38
-0.21704577 0.30518857 0.93342298 2.2772688e-38
-0.22113335 0.31147623 0.93000007 1.2616835e-38
-0.21497732 0.31557587 0.93232346 2.1480878e-38
-0.21415457 0.3226248 0.93028599 2.0001431e-38
-0.50579047 0.37845242 0.93500006 1.8607645e-38
0.46920574 0.11573143 0.94200003 6.4789175e-40
-0.51192003 0.14445716 0.94800007 2.3325854e-38
-0.49541062 0.14845553 0.94800007 1.7708088e-38
-0.51508003 0.15574287 0.94800007 2.0179257e-38
-0.50263357 0.15851593 0.94800007 2.3141107e-38
-0.49591804 0.15510911 0.94690907 1.9260308e-38
-0.45792431 0.15684716 0.94650006 1.383628e-38
-0.32141715 0.15800001 0.94800007 2.341769e-38
-0.31508398 0.15820003 0.94753855 2.341769e-38
-0.30968001 0.15980573 0.94800007 2.341769e-38
-0.51372576 0.16161144 0.94800007 2.1948274e-38
-0.50354815 0.16325301 0.94800007 1.7985748e-38
-0.49628124 0.16511224 0.9478572 1.7980365e-38
-0.32103023 0.16548082 0.94800007 2.341769e-38
-0.31428173 0.16517185 0.94677275 2.341769e-38
-0.3079569 0.16607229 0.94770002 2.341769e-38
-0.49747431 0.17064001 0.94800007 2.1764651e-38
-0.32051432 0.17064001 0.94800007 2.341769e-38
-0.31357965 0.17370237 0.94460863 2.341769e-38
-0.30509156 0.17476423 0.94591671 2.341769e-38
-0.2966724 0.17754668 0.94760001 2.341769e-38
-0.31220576 0.18355544 0.94200003 2.341769e-38
-0.30513507 0.18487588 0.94233322 2.341769e-38
-0.29551771 0.18564267 0.94517642 2.341769e-38
-0.28710857 0.18779428 0.94800001 2.341769e-38
-0.46416894 0.1975251 0.94800007 2.13008e-38
-0.45964074 0.1971193 0.94725001 1.6876189e-38
-0.31130859 0.19198859 0.94200003 2.341769e-38
-0.30479044 0.19502339 0.94170958 2.341769e-38
-0.29530844 0.1949978 0.94209987 2.341769e-38
-0.28570983 0.19470067 0.94585711 2.341769e-38
-0.27651763 0.19714738 0.9470526 2.341769e-38
-0.46256384 0.20193908 0.94800013 1.4294751e-38
-0.30438098 0.20232381 0.94000006 2.341769e-38
-0.2948398 0.20412323 0.9406004 2.341769e-38
-0.2854329 0.20464824 0.94247216 2.341769e-38
-0.27544588 0.20523304 0.94516659 2.341769e-38
-0.2662273 0.20751531 0.94694996 2.3141097e-38
-0.25912002 0.20856002 0.94800007 1.4264278e-38
-0.29274288 0.21038097 0.94000006 2.341769e-38
-0.28390294 0.21452874 0.94103718 2.341769e-38
-0.2745811 0.21535769 0.9421944 2.341769e-38
-0.26467654 0.21516275 0.94528109 2.3416603e-38
-0.2574465 0.21557108 0.94760001 1.4270901e-38
-0.28200004 0.22112384 0.94000006 2.341769e-38
-0.27345937 0.22438544 0.94116676 2.341769e-38
-0.26410288 0.22457717 0.94323516 2.341769e-38
-0.2550737 0.22605132 0.94639999 1.7596773e-38
-0.24862383 0.22818002 0.94700003 1.4376409e-38
-0.45251718 0.23797573 0.94650006 1.5282895e-38
-0.27161527 0.23222478 0.94000006 2.341769e-38
-0.2645109 0.23379752 0.94057155 2.341769e-38
-0.25482273 0.23508307 0.94213891 2.1660554e-38
-0.24569058 0.23524091 0.9458999 1.5662131e-38
-0.23925716 0.2383543 0.94800007 2.1748114e-38
-0.5173372 0.24648002 0.94800007 2.2950234e-38
-0.45955431 0.24106288 0.94800007 2.1580753e-38
-0.26051429 0.24081907 0.94000006 2.341769e-38
-0.25402281 0.24493438 0.94107163 2.3049986e-38
-0.24468984 0.24429552 0.94349974 1.5105691e-38
-0.23774685 0.24538931 0.94424999 2.1286783e-38
-0.49430004 0.25235301 0.94663638 2.341769e-38
-0.48611018 0.25343946 0.94449991 2.341769e-38
-0.25236002 0.25307697 0.9412002 2.341769e-38
-0.24495849 0.25473383 0.94148374 1.6215644e-38
-0.23575179 0.25518784 0.94318157 1.962727e-38
-0.22950001 0.25830001 0.94500005 2.2485685e-38
-0.2417143 0.26140952 0.94000006 1.0516028e-38
-0.23393515 0.26453727 0.94136667 1.8985138e-38
-0.23164287 0.27327144 0.94000006 1.8984436e-38
-0.22723968 0.27487794 0.94260019 2.295564e-38
-0.33119434 0.10553207 0.95800006 2.341769e-38
-0.32545936 0.10831267 0.95800018 2.341769e-38
-0.33067572 0.11477858 0.95650005 2.341769e-38
-0.32478809 0.11455549 0.95672739 2.341769e-38
-0.31781569 0.11743075 0.95718193 2.341769e-38
-0.33119431 0.1249962 0.95800012 2.341769e-38
-0.32474127 0.12462091 0.95511997 2.341769e-38
-0.31529215 0.12490469 0.95634484 2.341769e-38
-0.30851516 0.1262996 0.95800018 2.341769e-38
-0.53170294 0.13738477 0.95714301 2.341769e-38
-0.52421814 0.13690947 0.95518756 2.3049262e-38
-0.51479048 0.13511011 0.95461535 1.3831545e-38
-0.50473225 0.13566236 0.95433331 1.8075064e-38
-0.49773526 0.13756382 0.95500004 1.3645056e-38
-0.3309789 0.13511986 0.95650005 2.341769e-38
-0.32471311 0.13461313 0.95503336 2.341769e-38
-0.31488389 0.13468993 0.95558345 2.341769e-38
-0.305035 0.13555862 0.95706904 2.341769e-38
-0.2974323 0.13848913 0.95757163 2.341769e-38
-0.54149812 0.14734954 0.95800006 1.6685307e-38
-0.53355896 0.14530371 0.95422226 2.0837673e-38
-0.52491051 0.14495414 0.95222557 2.3234018e-38
-0.51492959 0.14496334 0.95022243 2.2864879e-38
-0.50516927 0.14468473 0.95034313 1.99186e-38
-0.49451122 0.14359313 0.95092607 1.6232569e-38
-0.4892067 0.14612667 0.95300007 1.549971e-38
-0.47177052 0.14643525 0.95740014 1.4666386e-38
-0.4672043 0.14693414 0.95533341 1.742899e-38
-0.33015716 0.14188573 0.95500004 2.341769e-38
-0.32381284 0.14479952 0.95239276 2.341769e-38
-0.31489065 0.14519331 0.95284355 2.341769e-38
-0.30529258 0.14520019 0.95378774 2.341769e-38
-0.29483825 0.14468905 0.95550001 2.341769e-38
-0.28720498 0.14568743 0.95778584 2.3325852e-38
-0.54310256 0.15496874 0.95716679 2.065579e-38
-0.53450483 0.15536475 0.95484614 2.0832994e-38
-0.52458614 0.15513912 0.95260853 2.0746566e-38
-0.51435721 0.15426192 0.94999999 1.5954212e-38
-0.50592643 0.15397404 0.95000011 2.074583e-38
-0.4808248 0.15966667 0.95800006 1.9734943e-38
-0.4737623 0.15512089 0.95561123 2.1115324e-38
-0.46496972 0.15459472 0.95217401 1.7891045e-38
-0.45762476 0.15405096 0.95150006 1.8991987e-38
-0.32277384 0.15267858 0.94999993 2.341769e-38
-0.3146241 0.15373334 0.95054561 2.341769e-38
-0.30486071 0.15492748 0.95340598 2.341769e-38
-0.29481235 0.15468608 0.95541668 2.341769e-38
-0.2850472 0.15538572 0.95644832 2.314146e-38
-0.27593723 0.1579382 0.95675009 1.4548875e-38
-0.54150844 0.16445601 0.954 2.3233659e-38
-0.53462887 0.16475514 0.95506442 2.341769e-38
-0.5246129 0.16459846 0.9543637 2.341769e-38
-0.5146063 0.16485012 0.95103854 1.7418144e-38
-0.50672704 0.16605401 0.94999993 1.6692155e-38
-0.48344699 0.16610214 0.95707709 1.9172798e-38
-0.47543436 0.16403778 0.95511121 2.2127684e-38
-0.46685719 0.16014287 0.95000005 2.2958513e-38
-0.45345336 0.16149144 0.95800006 2.323366e-38
-0.44980383 0.16422859 0.95800006 4.0826733e-39
-0.3187778 0.1643651 0.95000005 2.341769e-38
-0.30417535 0.16416191 0.95124161 2.341769e-38
-0.29460123 0.16514426 0.95277768 2.341769e-38
-0.2850402 0.16493446 0.95485187 2.341769e-38
-0.27487481 0.16474354 0.95570004 1.6121647e-38
-0.26732764 0.16574922 0.95800012 1.6027644e-38
-0.54230005 0.17327251 0.95700008 2.2498615e-38
-0.53670967 0.17421252 0.95771444 2.3325494e-38
-0.52463788 0.17238656 0.95770007 2.2403552e-38
-0.51484793 0.17522322 0.9537273 1.1990531e-38
-0.50478166 0.17504126 0.95192844 1.6229379e-38
-0.49596784 0.17602137 0.95417392 2.0652927e-38
-0.48461792 0.17448473 0.95503217 2.0099038e-38
-0.47799489 0.17600739 0.95508337 1.5673341e-38
-0.29426482 0.17374915 0.95042866 2.341769e-38
-0.28510836 0.17454165 0.95382845 2.341769e-38
-0.27469063 0.17442383 0.95459998 1.9449297e-38
-0.26471937 0.17510593 0.95657587 1.6208078e-38
-0.25810179 0.17824303 0.95650005 2.0262159e-38
-0.54377908 0.18293241 0.95800006 2.2680851e-38
-0.53556764 0.18338859 0.95800006 2.3325496e-38
-0.51362437 0.18366605 0.9570626 1.1708932e-38
-0.50421816 0.1843615 0.95486367 2.17589e-38
-0.4945679 0.18423669 0.95396423 1.7796631e-38
-0.48495775 0.18243012 0.9568001 1.9366881e-38
-0.4771753 0.18247621 0.95800012 2.323366e-38
-0.4607524 0.18886288 0.95800006 1.7798845e-38
-0.45365995 0.18653527 0.95544457 1.8446362e-38
-0.44728774 0.18655117 0.95485717 1.6494428e-38
-0.29120409 0.18237416 0.94999999 2.341769e-38
-0.28443867 0.18363394 0.9509232 2.341769e-38
-0.27528879 0.18512514 0.95176452 2.3141458e-38
-0.26523939 0.18530364 0.95377755 1.482729e-38
-0.2573745 0.18544188 0.95605564 1.9988093e-38
-0.52218604 0.19646606 0.95800012 1.0028921e-38
-0.5147981 0.19505021 0.9556551 1.6044961e-38
-0.50552213 0.19395316 0.95507699 2.1206451e-38
-0.4981156 0.19197357 0.95733345 2.341769e-38
-0.47375813 0.19104885 0.95525002 2.0932021e-38
-0.4642449 0.19516414 0.95166665 1.9824615e-38
-0.45513168 0.19503999 0.954 1.5026889e-38
-0.44725046 0.19348279 0.95584625 1.5288685e-38
-0.28138098 0.19090478 0.95000005 2.341769e-38
-0.2739521 0.19374052 0.95060009 2.341769e-38
-0.26506799 0.19548127 0.95227247 1.7137564e-38
-0.25523874 0.19523145 0.95468956 1.9253062e-38
-0.54524934 0.20560639 0.95610011 1.9171971e-38
-0.52157784 0.20528573 0.95800006 1.1153592e-38
-0.51395988 0.20477441 0.95616668 1.7333912e-38
-0.50695807 0.20601952 0.95754558 1.4760017e-38
-0.48264956 0.20893525 0.95800006 1.4119322e-38
-0.47786385 0.20555238 0.95500004 1.7518675e-38
-0.46279594 0.20471217 0.95269239 1.7248193e-38
-0.45774466 0.20287924 0.95440006 1.4015235e-38
-0.44432956 0.20893525 0.95800006 1.7314021e-38
-0.27052382 0.20176192 0.95000005 2.341769e-38
-0.26382357 0.20317276 0.95126325 1.7230509e-38
-0.25463834 0.20513022 0.95316213 1.6947091e-38
-0.54560387 0.21258478 0.95800012 1.9730479e-38
-0.51262784 0.21493092 0.95800018 1.6412338e-38
-0.50465596 0.21447054 0.95784217 1.6783252e-38
-0.49359813 0.2162343 0.95800018 2.1022783e-38
-0.48527515 0.21623787 0.9569335 2.157703e-38
-0.47570202 0.21472849 0.95552182 2.0469596e-38
-0.46274483 0.21687882 0.95416665 1.7984314e-38
-0.45514217 0.21626443 0.95587993 1.6593462e-38
-0.44670051 0.21574174 0.95752645 1.6576844e-38
-0.25289994 0.21461181 0.95150012 1.547737e-38
-0.5021137 0.22657463 0.95800006 1.8351287e-38
-0.49456963 0.2265228 0.95599997 1.4479485e-38
-0.4882077 0.22515488 0.95714295 1.9825327e-38
-0.47177052 0.22448479 0.95740002 2.2312073e-38
-0.46461725 0.22474003 0.9546957 1.7889971e-38
-0.45479912 0.22476926 0.95482612 1.54788e-38
-0.44589406 0.22499767 0.9532758 1.2892265e-38
-0.25242859 0.22257146 0.94999999 1.2617888e-38
-0.53425074 0.23818651 0.95700014 1.8067345e-38
-0.52607 0.23641768 0.95600015 1.6959948e-38
-0.5106293 0.23934796 0.95800006 2.1762499e-38
-0.50454676 0.23904382 0.95800012 1.917925e-38
-0.49377123 0.23314805 0.95461112 1.8256946e-38
-0.48846754 0.23297119 0.95714301 2.2494667e-38
-0.464605 0.23607336 0.9556002 2.036982e-38
-0.45473891 0.23465782 0.9524616 1.7231874e-38
-0.4472684 0.23509531 0.95519048 9.1140746e-39
-0.54104191 0.24360573 0.95800006 1.8982084e-38
-0.53407276 0.24422538 0.95515794 1.8621544e-38
-0.525693 0.24445166 0.95513642 1.4183342e-38
-0.51416886 0.24540471 0.95411551 2.130116e-38
-0.50497144 0.24609439 0.9541471 2.1944729e-38
-0.49546215 0.24727243 0.95368749 2.1299727e-38
-0.48626387 0.24832268 0.95277774 2.2406421e-38
-0.46442044 0.24527013 0.95412493 2.2218351e-38
-0.45458031 0.2449805 0.95421433 1.5381899e-38
-0.51415706 0.25218835 0.95288891 2.341769e-38
-0.50483751 0.253391 0.95264298 2.341769e-38
-0.49716669 0.25197619 0.95000005 2.341769e-38
-0.48231277 0.25451937 0.95216018 2.3233299e-38
-0.47811109 0.2574707 0.9526 2.2495379e-38
-0.48360798 0.26381701 0.95300001 2.3325853e-38
-0.47797146 0.26227546 0.95160007 2.2865599e-38
-0.33387813 0.068857156 0.96400011 1.5471582e-38
-0.35052001 0.078200005 0.96600002 1.6576482e-38
-0.34324107 0.076282553 0.96346682 1.5469419e-38
-0.33456945 0.075336985 0.96375668 1.5378664e-38
-0.32584757 0.075201787 0.96787488 1.6486432e-38
-0.3128486 0.078442864 0.96900004 2.3417679e-38
-0.30731145 0.078442864 0.96900004 2.3411526e-38
-0.3453618 0.084883943 0.96528566 2.0552416e-38
-0.33510557 0.085063033 0.96182781 2.2955627e-38
-0.32509241 0.084732525 0.96567547 2.3141459e-38
-0.31500119 0.086074501 0.96767986 2.3325496e-38
-0.30715767 0.086594775 0.96899998 2.3324404e-38
-0.34384874 0.094994575 0.96571416 2.341769e-38
-0.33428195 0.095461495 0.96262485 2.3417331e-38
-0.32501692 0.095275939 0.96445441 2.341769e-38
-0.31460315 0.095494717 0.96548551 2.3417331e-38
-0.30601284 0.095547721 0.96839994 2.3233655e-38
-0.29869813 0.097515248 0.96900004 1.5273085e-38
-0.34369242 0.10366382 0.96749997 2.341769e-38
-0.33531511 0.10507824 0.96274996 2.341769e-38
-0.32448441 0.10418774 0.96245831 2.341769e-38
-0.31402653 0.10551 0.96336365 2.341769e-38
-0.30458248 0.10490077 0.96619982 2.341769e-38
-0.2962729 0.10563332 0.96773064 1.5844307e-38
-0.28537887 0.1086263 0.96660006 1.5932539e-38
-0.27881145 0.10914001 0.96300006 1.795761e-38
-0.47158003 0.11812572 0.96900004 1.7428591e-38
-0.46586812 0.11738811 0.96799994 1.4745225e-38
-0.34238002 0.11904858 0.96900004 2.341769e-38
-0.33663243 0.11503744 0.96343756 2.341769e-38
-0.3139638 0.11433633 0.96299994 2.341769e-38
-0.3047787 0.11481653 0.96512485 2.341769e-38
-0.2955561 0.11513599 0.96544421 1.9446803e-38
-0.2852591 0.11502344 0.96619982 1.4638935e-38
-0.27931815 0.11597239 0.96900004 1.7773576e-38
-0.53636003 0.12972 0.96600002 2.341768e-38
-0.52409202 0.12697127 0.96652943 1.9364356e-38
-0.5157609 0.12650084 0.96662492 1.3922328e-38
-0.50393695 0.12797645 0.96675003 1.5677276e-38
-0.49403873 0.12687428 0.9659999 1.6419517e-38
-0.48548752 0.12723821 0.96637481 1.6141476e-38
-0.47158003 0.12181715 0.96900004 1.7243902e-38
-0.4642083 0.12478338 0.96696413 1.7700492e-38
-0.45496821 0.12637675 0.96668166 1.5669661e-38
-0.44600847 0.12615027 0.96559083 2.0468168e-38
-0.3405343 0.12274001 0.96900004 2.341769e-38
-0.33605346 0.12436114 0.96336365 2.341769e-38
-0.31150478 0.1209362 0.96200001 2.341769e-38
-0.304649 0.12427989 0.96188897 2.341769e-38
-0.29562449 0.12486112 0.96399987 2.295526e-38
-0.28545591 0.12504371 0.9664284 1.2981227e-38
-0.27768788 0.12582037 0.96787488 1.7221124e-38
-0.54327226 0.13575272 0.96490914 2.341769e-38
-0.53555202 0.13404401 0.96340019 2.3141465e-38
-0.52596635 0.13263582 0.9618001 1.9457272e-38
-0.51413167 0.13066301 0.96328574 1.1528478e-38
-0.503856 0.13143545 0.96211118 1.6416628e-38
-0.4962312 0.13454947 0.9652856 1.8261252e-38
-0.48472482 0.13108097 0.96700001 1.8348057e-38
-0.47195932 0.13638644 0.96600008 1.7706283e-38
-0.46499139 0.13457558 0.96458328 2.0286662e-38
-0.4567309 0.13470401 0.96560854 2.2220234e-38
-0.44565359 0.13368157 0.96681815 2.2125166e-38
-0.33563003 0.13286477 0.96550006 2.341769e-38
-0.303554 0.13148922 0.96100008 2.341769e-38
-0.2946946 0.13439596 0.96240741 2.3417686e-38
-0.28484836 0.13496433 0.96532232 1.4828727e-38
-0.27552167 0.1353443 0.96674985 1.8051254e-38
-0.55039877 0.14637905 0.96266669 1.8877447e-38
-0.54521346 0.14431714 0.96200013 2.1757074e-38
-0.53907526 0.14003144 0.96100003 2.341769e-38
-0.49625638 0.14308409 0.96571434 1.4853283e-38
-0.48215976 0.14585973 0.96689999 1.4664209e-38
-0.47553161 0.14408053 0.96280015 1.8164385e-38
-0.46496233 0.14443265 0.96255177 1.9456194e-38
-0.45710582 0.14553073 0.96369565 1.9915371e-38
-0.44398662 0.14618205 0.96839994 1.5858083e-38
-0.29216224 0.1401286 0.9616667 2.341769e-38
-0.28379172 0.14380962 0.96236372 1.7500591e-38
-0.2748771 0.14494132 0.96372968 1.5934714e-38
-0.54578704 0.15162447 0.96100008 1.363931e-38
-0.49201089 0.15761201 0.96780008 2.0654701e-38
-0.48496062 0.1552514 0.96461117 2.1113529e-38
-0.47866955 0.15376002 0.96100003 2.2498969e-38
-0.46285996 0.15388255 0.96622223 1.6510639e-38
-0.45612979 0.15485403 0.96700001 1.8444563e-38
-0.44484723 0.15506375 0.96817225 1.6870049e-38
-0.28219843 0.15223464 0.96100008 1.9912773e-38
-0.27424061 0.15407318 0.96221745 1.418013e-38
-0.50140005 0.16836001 0.96600002 1.7334625e-38
-0.49439773 0.16569771 0.96405274 2.1758904e-38
-0.48665708 0.16282921 0.96100014 1.9459065e-38
-0.47814527 0.16918907 0.96550006 2.0104786e-38
-0.46180531 0.16602811 0.96850008 2.1948318e-38
-0.45413554 0.16512807 0.96266681 1.62344e-38
-0.44583306 0.16521734 0.96347058 1.8716461e-38
-0.26504222 0.16454554 0.9616335 1.878847e-38
-0.54604053 0.17712986 0.96144456 2.2402465e-38
-0.53343129 0.17557321 0.96100014 2.3325854e-38
-0.52752638 0.17684115 0.96118194 2.3325494e-38
-0.50182289 0.17178288 0.96800005 1.9735295e-38
-0.49596241 0.17415395 0.9629091 2.2128403e-38
-0.48083004 0.17159477 0.96350002 1.973637e-38
-0.47512916 0.17463642 0.9635517 1.8993782e-38
-0.46533269 0.17707624 0.96480954 2.0196622e-38
-0.45472899 0.17519289 0.9642691 2.0843062e-38
-0.44503415 0.17474239 0.96437025 1.8153205e-38
-0.26450384 0.17114954 0.96100003 1.8332155e-38
-0.55120289 0.18984859 0.96300006 1.4565958e-38
-0.54505533 0.18549843 0.96212012 2.1024583e-38
-0.53463143 0.18553609 0.96135741 2.3049989e-38
-0.52596676 0.18521915 0.96213335 1.9355333e-38
-0.51661897 0.1882778 0.96122223 1.3186916e-38
-0.49192598 0.18733948 0.96266675 1.963915e-38
-0.48486272 0.18563296 0.96193773 1.6783992e-38
-0.47413653 0.18544164 0.9623335 2.2681568e-38
-0.46453267 0.18381217 0.96300006 1.8629673e-38
-0.45540127 0.18186544 0.9625001 1.5207673e-38
-0.44747815 0.18434159 0.96426678 1.5840061e-38
-0.55097389 0.19527106 0.96260005 1.6873504e-38
-0.54533762 0.1952219 0.96235996 1.4200527e-38
-0.53533125 0.19506311 0.96123105 1.6689943e-38
-0.52703488 0.19425602 0.96111131 1.9454351e-38
-0.51710957 0.19128478 0.96100003 1.4656314e-38
-0.50406742 0.19769146 0.96100003 1.4751414e-38
-0.48461685 0.1907216 0.96433342 2.0383168e-38
-0.44650775 0.19620584 0.96270019 1.639139e-38
-0.55034435 0.2042024 0.96150005 1.871609e-38
-0.54385298 0.20432878 0.96209103 1.8899625e-38
-0.53562528 0.20460527 0.96211123 1.7607786e-38
-0.52657014 0.20510702 0.96121079 1.0406957e-38
-0.50382531 0.20433462 0.96108025 1.6141138e-38
-0.46036479 0.20958954 0.96100003 1.9646694e-38
-0.45421979 0.20533137 0.96175885 1.4465736e-38
-0.55028713 0.21517201 0.96140003 1.880827e-38
-0.54431045 0.21572633 0.96265024 1.8069864e-38
-0.53523988 0.2145437 0.96243757 1.8253527e-38
-0.5257414 0.21485345 0.96224141 1.3640271e-38
-0.51619434 0.21492843 0.96100014 1.5862753e-38
-0.50373304 0.21578501 0.9610002 1.7238125e-38
-0.49617401 0.21379037 0.9614765 1.8995932e-38
-0.48736435 0.21462333 0.96100014 2.1483755e-38
-0.46402574 0.21386066 0.96100008 1.8807955e-38
0.36960858 0.29440287 0.96300006 1.2887207e-38
0.3731786 0.29670146 0.96750003 1.2795727e-38
-0.32279265 0.068822145 0.97325003 1.5470861e-38
-0.31456089 0.06866467 0.97430003 1.5194275e-38
-0.30556285 0.068956196 0.97580004 1.6393547e-38
-0.29682195 0.069785729 0.97700012 1.9894798e-38
-0.32185048 0.073630959 0.97250009 1.6208793e-38
-0.31486407 0.075041711 0.97278601 1.8521203e-38
-0.30462435 0.074840046 0.97462982 1.6299912e-38
-0.29565758 0.07565897 0.97556514 1.9342346e-38
-0.32122287 0.08146286 0.97200006 2.3325496e-38
-0.31326172 0.081833147 0.97200006 2.3325496e-38
-0.30353314 0.084650248 0.97266692 1.4826939e-38
-0.29535553 0.084977187 0.97403061 1.5931846e-38
-0.28871179 0.087384775 0.97266674 1.8418603e-38
-0.35265049 0.091186672 0.97700006 2.341769e-38
-0.30236593 0.093929529 0.97222233 1.8151362e-38
-0.2942417 0.094928339 0.97340035 1.4457046e-38
-0.529441 0.10886572 0.97700006 1.4650135e-38
-0.51501864 0.10886572 0.97700006 1.5575718e-38
-0.50440276 0.1075123 0.97700018 1.7513615e-38
-0.49480584 0.10639396 0.97541183 1.6863196e-38
-0.48464519 0.10687184 0.97700024 1.9352481e-38
-0.47537172 0.1069954 0.97561544 1.8706379e-38
-0.46588287 0.1074962 0.97640008 1.9076963e-38
-0.4587248 0.10886572 0.97700006 1.9622925e-38
-0.34674066 0.10733112 0.97433341 2.341769e-38
-0.29236224 0.10332223 0.97300005 1.372056e-38
-0.54060668 0.11817048 0.97700006 1.2949441e-38
-0.53480411 0.1180174 0.97575009 1.7694741e-38
-0.52457476 0.11551505 0.97556692 1.6218525e-38
-0.51464367 0.11527638 0.97503585 1.5667897e-38
-0.5053581 0.11368229 0.97700018 1.5210897e-38
-0.49470606 0.11494018 0.97675985 1.4839929e-38
-0.48480082 0.11443386 0.97600007 1.5023258e-38
-0.47567779 0.11420672 0.97318542 1.6591293e-38
-0.46370286 0.11373237 0.97273099 1.750964e-38
-0.45528352 0.11531176 0.97403449 1.6862119e-38
-0.44528797 0.11733519 0.97499996 1.7419243e-38
-0.43808594 0.11802419 0.97580004 1.695718e-38
-0.55259299 0.12688927 0.97657162 2.341769e-38
-0.54457563 0.12583619 0.97633344 2.1109915e-38
-0.53452665 0.12517101 0.97355002 2.2680847e-38
-0.52651215 0.12239838 0.97257149 2.2589373e-38
-0.51341224 0.12310994 0.97333336 1.8167973e-38
-0.50507557 0.1226492 0.97564298 1.4111045e-38
-0.49572152 0.12189722 0.9751876 1.7516489e-38
-0.4851194 0.12357668 0.97561115 1.8901225e-38
-0.47519389 0.12462184 0.97261548 1.6596382e-38
-0.46131432 0.12188572 0.97200006 1.2440355e-38
-0.45514292 0.12157716 0.97200006 1.3357955e-38
-0.44340888 0.12436509 0.97288895 2.0925185e-38
-0.55154467 0.13316208 0.97550011 2.341769e-38
-0.54580867 0.13158762 0.97300005 2.3417689e-38
-0.53709149 0.1307943 0.97400004 2.2223829e-38
-0.49317434 0.13631146 0.97200006 1.7799565e-38
-0.48460507 0.13578849 0.97315162 1.9271796e-38
-0.47817087 0.13590001 0.97340012 1.5680098e-38
-0.45465994 0.13850097 0.97228587 2.295851e-38
-0.48729607 0.14404117 0.97200006 1.5310663e-38
-0.48970288 0.15089144 0.97200006 1.1891496e-38
-0.51371658 0.38296479 0.97600007 1.8514734e-38
-0.4330667 0.36866668 0.98000002 1.8974292e-38
-0.51613331 0.38712591 0.97999996 1.8699136e-38
