# .PCD v0.7 - Point Cloud Data file format
VERSION 0.7
FIELDS x y z rgb
SIZE 4 4 4 4
TYPE F F F F
COUNT 1 1 1 1
WIDTH 242
HEIGHT 1
VIEWPOINT 0 0 0 1 0 0 0
POINTS 242
DATA ascii
0.067570798 0.12733462 0.84800005 2.3418052e-38
0.075754672 0.1261501 0.84799981 2.3418052e-38
0.084476963 0.12668854 0.84799999 2.3418052e-38
0.057475563 0.13742983 0.84800005 2.3418052e-38
0.064850174 0.13516355 0.84629703 2.3418052e-38
0.07499931 0.13467306 0.84677517 2.3418052e-38
0.085391298 0.13452747 0.84585702 2.3418052e-38
0.094048157 0.13606226 0.84722203 2.3418052e-38
0.10095239 0.13810286 0.84800005 2.3418052e-38
0.057340957 0.14475386 0.84799993 2.3418052e-38
0.064448498 0.14501691 0.84591639 2.3418052e-38
0.074842855 0.14485715 0.84499997 2.3418052e-38
0.085266083 0.14479138 0.84461099 2.3418052e-38
0.095062293 0.14506577 0.8468855 2.3418052e-38
0.10095239 0.14456382 0.84800005 2.3418052e-38
0.057962209 0.1553735 0.84800005 2.3418052e-38
0.06454929 0.15492645 0.84724981 2.3418052e-38
0.074861296 0.15455435 0.84521425 2.3418052e-38
0.085304767 0.1545143 0.84499979 2.3418052e-38
0.093982071 0.15456355 0.8473075 2.3418052e-38
0.058310099 0.16200839 0.84800005 2.3418052e-38
0.064799555 0.16451679 0.84799975 2.3418052e-38
0.075069122 0.16467278 0.84757113 2.3418052e-38
0.08550778 0.16456352 0.84699976 2.3418052e-38
0.092876203 0.16362362 0.84799999 2.3418052e-38
0.079954289 0.17040762 0.84800005 2.3418052e-38
0.084530801 0.17067683 0.84800005 2.3418052e-38
0.07926286 0.10868001 0.85800004 2.3418052e-38
0.049845718 0.11848572 0.85800004 2.3418052e-38
0.056041982 0.11688927 0.85651863 2.3418052e-38
0.065243483 0.11493113 0.85502446 2.3418052e-38
0.074850984 0.11471152 0.85428584 2.3418052e-38
0.084659189 0.1147704 0.85471463 2.3418052e-38
0.094279818 0.1154301 0.85610551 2.3418052e-38
0.10231153 0.11774009 0.85690898 2.3418052e-38
0.047450718 0.125902 0.85658348 2.3418052e-38
0.055304024 0.12525056 0.85400009 2.3418052e-38
0.064302668 0.12433289 0.85180002 2.3418052e-38
0.073581085 0.12216801 0.85026681 2.3418052e-38
0.085526668 0.12302363 0.85040015 2.3418052e-38
0.094691552 0.12491307 0.85235292 2.3418052e-38
0.10433406 0.12497643 0.85529745 2.3418052e-38
0.11117417 0.12820491 0.85742861 2.3418052e-38
0.03871391 0.13705295 0.85760003 2.3418052e-38
0.045048337 0.13532265 0.85545015 2.3418052e-38
0.054260276 0.13394491 0.8512857 2.3418052e-38
0.062009532 0.13098097 0.85000002 2.3418052e-38
0.097721785 0.13294034 0.85080016 2.3418052e-38
0.10556237 0.13478936 0.85258824 2.3418052e-38
0.1134754 0.13597083 0.85652632 2.3418052e-38
0.038405716 0.14626858 0.85800004 2.3418052e-38
0.044760462 0.1448859 0.85466671 2.3418052e-38
0.052885909 0.14554 0.85040015 2.3418052e-38
0.099571437 0.14976192 0.85000002 2.3418052e-38
0.10593094 0.14468569 0.85218185 2.3418052e-38
0.1143306 0.14498982 0.85624015 2.3418052e-38
0.045108438 0.15460113 0.85448778 2.3418052e-38
0.053261198 0.15512995 0.85058343 2.3418052e-38
0.098761916 0.15640001 0.85000002 2.3418052e-38
0.10550328 0.15500113 0.8521052 2.3418052e-38
0.11416978 0.15494089 0.85624999 2.3418052e-38
0.046687163 0.16411546 0.85528016 2.3418052e-38
0.054636624 0.16601557 0.85219353 2.3418052e-38
0.061523814 0.16919048 0.85000002 2.3418052e-38
0.097324915 0.16606507 0.85057151 2.3418052e-38
0.10505058 0.16494797 0.85290313 2.3418052e-38
0.11354914 0.1651074 0.85681486 2.3418052e-38
0.048187453 0.17419757 0.85588229 2.3418052e-38
0.05527861 0.17478654 0.85360003 2.3418052e-38
0.064855978 0.17481704 0.8529678 2.3418052e-38
0.074705034 0.1751225 0.85182863 2.3418052e-38
0.084735304 0.17583431 0.85154849 2.3418052e-38
0.09428174 0.17541401 0.8529374 2.3418052e-38
0.10454983 0.17496018 0.85593766 2.3418052e-38
0.11241084 0.17346583 0.85762489 2.3418052e-38
0.049223494 0.18085144 0.85666674 2.3418052e-38
0.055472489 0.18191716 0.85655552 2.3418052e-38
0.065881371 0.18322368 0.85656011 2.3418052e-38
0.074918352 0.18391228 0.85626096 2.3418052e-38
0.084444538 0.18391776 0.85609519 2.3418052e-38
0.094356053 0.18249729 0.85692304 2.3418052e-38
0.10132572 0.18058859 0.85800004 2.3418052e-38
0.067305714 0.099056594 0.8682 2.3418052e-38
0.07466726 0.097786359 0.86700004 2.3418052e-38
0.08221443 0.097981185 0.8679232 2.3418052e-38
0.056056704 0.10709655 0.8667084 2.3418052e-38
0.064761229 0.10476248 0.8639524 2.3418052e-38
0.07515946 0.10486342 0.86262167 2.3418052e-38
0.085350879 0.10506855 0.86308324 2.3418052e-38
0.094763152 0.10511541 0.86484206 2.3418052e-38
0.10401638 0.1071501 0.86680001 2.3418052e-38
0.11007334 0.1084181 0.86900002 2.3418052e-38
0.037693337 0.11802858 0.86666673 2.3418052e-38
0.044993483 0.1153572 0.86489469 2.3418052e-38
0.053766463 0.11216056 0.86163157 2.3418052e-38
0.061428577 0.11057144 0.86000001 2.3418052e-38
0.097876199 0.11098097 0.86000001 2.3418052e-38
0.10564612 0.11384486 0.86137044 2.3418052e-38
0.11388525 0.11601065 0.8664999 2.3418052e-38
0.035622105 0.12550047 0.86713797 2.3418052e-38
0.042849522 0.12419602 0.86313039 2.3418052e-38
0.10893334 0.12121905 0.86000001 2.3418052e-38
0.11525901 0.12472964 0.86276662 2.3418052e-38
0.12299511 0.1271237 0.86757153 2.3418052e-38
0.035059724 0.1348622 0.86522222 2.3418052e-38
0.040710479 0.13087557 0.86066669 2.3418052e-38
0.11750498 0.13355164 0.86107147 2.3418052e-38
0.1245343 0.1355157 0.86672407 2.3418052e-38
0.028966669 0.14979906 0.86900002 2.3418052e-38
0.034671053 0.14522532 0.86387879 2.3418052e-38
0.11876191 0.14551748 0.86000007 2.3418052e-38
0.12504369 0.14525121 0.86541176 2.3418052e-38
0.13159144 0.14979906 0.86900002 2.3418052e-38
0.028966669 0.15228191 0.86900002 2.3418052e-38
0.03443842 0.15483524 0.86411428 2.3418052e-38
0.040133335 0.15889525 0.86000001 2.3418052e-38
0.11876191 0.15561906 0.86000007 2.3418052e-38
0.12515081 0.15495127 0.86528569 2.3418052e-38
0.035365686 0.16449586 0.86503333 2.3418052e-38
0.041812979 0.16653919 0.86087501 2.3418052e-38
0.11864627 0.16549309 0.86085725 2.3418052e-38
0.12466215 0.16468789 0.86451423 2.3418052e-38
0.13159144 0.16304097 0.86900002 2.3418052e-38
0.037056468 0.17360629 0.86742854 2.3418052e-38
0.042925123 0.17514038 0.86421055 2.3418052e-38
0.1133016 0.17500317 0.86000001 2.3418052e-38
0.057406552 0.18698822 0.86112505 2.3418052e-38
0.064987622 0.18839622 0.861 2.3418052e-38
0.075460717 0.1890655 0.86125004 2.3418052e-38
0.086045727 0.18875177 0.86044449 2.3418052e-38
0.095467754 0.18716073 0.8616668 2.3418052e-38
0.10497609 0.18483253 0.86165404 2.3418052e-38
0.11057144 0.18100953 0.86000001 2.3418052e-38
0.057965148 0.19206344 0.86700004 2.3418052e-38
0.06388972 0.19266434 0.86673343 2.3418052e-38
0.074850909 0.19386238 0.86654997 2.3418052e-38
0.085092284 0.19352378 0.86466676 2.3418052e-38
0.095375896 0.19488722 0.86706239 2.3418052e-38
0.10419019 0.19311486 0.86689991 2.3418052e-38
0.076810077 0.088994555 0.87800014 2.3418052e-38
0.084173873 0.088256836 0.87700009 2.3418052e-38
0.056813978 0.097655259 0.87516677 2.3418052e-38
0.064894848 0.095673189 0.8735835 2.3418052e-38
0.075046264 0.093108349 0.87500018 2.3418052e-38
0.085397229 0.094115399 0.8739602 2.3418052e-38
0.0947458 0.096694946 0.87430435 2.3418052e-38
0.1022623 0.098589532 0.87580007 2.3418052e-38
0.11372191 0.099506676 0.87800002 2.3418052e-38
0.046414744 0.10654797 0.87442118 2.3418052e-38
0.05363559 0.10277063 0.87210548 2.3418052e-38
0.09622477 0.10037239 0.87100005 2.3418052e-38
0.10597605 0.10290606 0.8732633 2.3418052e-38
0.11459872 0.10502874 0.87353122 2.3418052e-38
0.12128596 0.10794977 0.87524998 2.3418052e-38
0.039300956 0.11121334 0.87800002 2.3418052e-38
0.043475877 0.11077207 0.87233341 2.3418052e-38
0.11716323 0.1124846 0.87136382 2.3418052e-38
0.12317976 0.1156269 0.87585735 2.3418052e-38
0.028211839 0.12750083 0.87500006 2.3418052e-38
0.031038288 0.1263103 0.87140006 2.3418052e-38
0.12546927 0.12371611 0.87360018 2.3418052e-38
0.13053429 0.12804002 0.87300003 2.3418052e-38
0.027464183 0.13483794 0.87394458 2.3418052e-38
0.030704131 0.1344327 0.87133348 2.3418052e-38
0.1285762 0.13106477 0.87100005 2.3418052e-38
0.13144191 0.13559207 0.87166685 2.3418052e-38
0.027142525 0.14522456 0.87435007 2.3418052e-38
0.030692384 0.14184859 0.87100005 2.3418052e-38
0.13320287 0.14400384 0.87250006 2.3418052e-38
0.02611139 0.15533252 0.87431824 2.3418052e-38
0.13304844 0.15451062 0.87157166 2.3418052e-38
0.027206132 0.16377732 0.8756876 2.3418052e-38
0.030727621 0.16609715 0.87200004 2.3418052e-38
0.13272381 0.16092762 0.87100005 2.3418052e-38
0.029266668 0.17141905 0.87800002 2.3418052e-38
0.033545036 0.17524101 0.87442875 2.3418052e-38
0.037557147 0.18166636 0.87633342 2.3418052e-38
0.040810004 0.18156621 0.87450004 2.3418052e-38
0.056471758 0.19710064 0.87200016 2.3418052e-38
0.064814761 0.19776809 0.87250012 2.3418052e-38
0.075504661 0.19885981 0.87122238 2.3418052e-38
0.084943257 0.19891985 0.87100023 2.3418052e-38
0.091247626 0.19991525 0.87100005 2.3418052e-38
0.10203143 0.19825621 0.87100005 2.3418052e-38
0.057623178 0.20168224 0.87266672 2.3418052e-38
0.064887404 0.20213981 0.87344456 2.3418052e-38
0.07449232 0.20281947 0.87493348 2.3418052e-38
0.084872447 0.2027334 0.87313342 2.3418052e-38
0.092814498 0.20249601 0.87100017 2.3418052e-38
0.065640666 0.08866968 0.88284618 2.3418052e-38
0.074324608 0.086619847 0.88016671 2.3418052e-38
0.089676194 0.0888381 0.88000005 2.3418052e-38
0.092079051 0.088700004 0.88700002 2.3418052e-38
0.046421308 0.097709291 0.88637501 2.3418052e-38
0.055213623 0.094573304 0.88360864 2.3418052e-38
0.064302765 0.091842391 0.88150007 2.3418052e-38
0.071238101 0.092190482 0.88000005 2.3418052e-38
0.089676194 0.092190482 0.88000005 2.3418052e-38
0.09519811 0.092304364 0.88457143 2.3418052e-38
0.10493837 0.095916979 0.88281822 2.3418052e-38
0.11123125 0.098145537 0.88080007 2.3418052e-38
0.038492147 0.10704675 0.88508332 2.3418052e-38
0.043771293 0.10336213 0.88309526 2.3418052e-38
0.029633336 0.11514667 0.88900006 2.3418052e-38
0.034233432 0.11233193 0.88550007 2.3418052e-38
0.12807618 0.11573336 0.88000005 2.3418052e-38
0.13168065 0.11825969 0.88066673 2.3418052e-38
0.026775083 0.12683319 0.88783348 2.3418052e-38
0.12990478 0.12320001 0.88000005 2.3418052e-38
0.13158096 0.12403811 0.88000005 2.3418052e-38
0.018044923 0.13660668 0.88816667 2.3418052e-38
0.022884926 0.13508354 0.8828333 2.3418052e-38
0.017013213 0.14534788 0.88752156 2.3418052e-38
0.022461908 0.14443809 0.88175005 2.3418052e-38
0.017662408 0.15412137 0.88317639 2.3418052e-38
0.021731606 0.15395465 0.88072735 2.3418052e-38
0.019305399 0.16311494 0.88133335 2.3418052e-38
0.023067145 0.16545738 0.88075006 2.3418052e-38
0.026029637 0.17435604 0.88168007 2.3418052e-38
0.031044763 0.17787907 0.88100004 2.3418052e-38
0.028624764 0.18185145 0.88400006 2.3418052e-38
0.034992069 0.18522201 0.88366675 2.3418052e-38
0.042000003 0.18774 0.88200003 2.3418052e-38
0.037123937 0.19307001 0.88733339 2.3418052e-38
0.04512126 0.19520558 0.88332009 2.3418052e-38
0.051240005 0.19572002 0.88200003 2.3418052e-38
0.074760005 0.20748001 0.88200003 2.3418052e-38
0.056933019 0.088194817 0.89522225 2.3418052e-38
0.060860243 0.087670244 0.89375007 2.3418052e-38
0.039317146 0.098717153 0.89100003 2.3418052e-38
0.045816056 0.09562885 0.893143 2.3418052e-38
0.053161591 0.092065088 0.89233327 2.3418052e-38
0.098434292 0.090797149 0.89100003 2.3418052e-38
0.10267715 0.091645718 0.89100003 2.3418052e-38
0.029866669 0.10752001 0.89600003 2.3418052e-38
0.035040051 0.10512759 0.89328587 2.3418052e-38
0.029054478 0.11196458 0.89200002 2.3418052e-38
0.03202159 0.11080192 0.8926667 2.3418052e-38
0.018352384 0.12598391 0.8943637 2.3418052e-38
0.023408171 0.12528497 0.89300007 2.3418052e-38
0.017646668 0.13160858 0.89300001 2.3418052e-38
0.021250002 0.13089858 0.89250004 2.3418052e-38
