# .PCD v0.7 - Point Cloud Data file format
VERSION 0.7
FIELDS x y z rgb
SIZE 4 4 4 4
TYPE F F F F
COUNT 1 1 1 1
WIDTH 638
HEIGHT 1
VIEWPOINT 0 0 0 1 0 0 0
POINTS 638
DATA ascii
-0.15220645 0.18937641 0.5290001 1.760544e-38
-0.16439432 0.19691174 0.52873331 2.341769e-38
-0.15433459 0.19606669 0.52898163 1.9634094e-38
-0.14750026 0.19574247 0.52858335 2.212768e-38
-0.17227635 0.2052096 0.52900016 2.323366e-38
-0.16486336 0.20504011 0.52826458 2.3417689e-38
-0.15601297 0.2042511 0.5282737 2.0372737e-38
-0.14876877 0.20134707 0.52880007 2.3417684e-38
-0.18590572 0.21714193 0.52900004 2.341769e-38
-0.1744772 0.21545745 0.52857679 2.3325494e-38
-0.16487841 0.21503031 0.52766341 2.2772323e-38
-0.15727752 0.21420196 0.52804244 1.8528121e-38
-0.18792096 0.22268382 0.52900004 2.341769e-38
-0.17387602 0.22236019 0.52819353 2.341769e-38
-0.16481216 0.22190037 0.52723098 2.1110301e-38
-0.15907882 0.22140358 0.52775002 1.9454737e-38
-0.18530287 0.15977906 0.53600001 1.4309459e-38
-0.1924457 0.16782154 0.5350799 2.1652648e-38
-0.18472862 0.16535814 0.53410238 1.9907802e-38
-0.17522396 0.16517019 0.53439254 2.0279807e-38
-0.165548 0.16583189 0.53381276 2.3049269e-38
-0.15909819 0.16780487 0.53258336 2.341769e-38
-0.20172003 0.1780802 0.53327274 2.341769e-38
-0.19474873 0.17546827 0.53343606 2.3325134e-38
-0.18522629 0.17514065 0.53256297 2.341769e-38
-0.17515446 0.1749028 0.53214735 2.3325494e-38
-0.16521552 0.17520006 0.53203964 2.2495738e-38
-0.1551782 0.17570852 0.5322293 2.2218795e-38
-0.14929049 0.17884287 0.53500003 2.341769e-38
-0.20335343 0.1853653 0.53306389 2.341769e-38
-0.19486023 0.18502314 0.53257656 2.341769e-38
-0.18481942 0.18489286 0.53202426 2.3325494e-38
-0.17517984 0.18502787 0.53197777 2.341769e-38
-0.1649778 0.18516454 0.53161889 2.3325494e-38
-0.15480115 0.18465708 0.53109229 2.1297205e-38
-0.14813313 0.1865395 0.53377277 2.3049269e-38
-0.21228985 0.19688301 0.53365386 2.341769e-38
-0.20477727 0.19465919 0.53218526 2.341769e-38
-0.19479278 0.19469686 0.53191459 2.3325494e-38
-0.1846983 0.19475636 0.53144306 2.3325494e-38
-0.17514403 0.19491249 0.53145832 2.3325494e-38
-0.16490756 0.19290979 0.5306381 2.341769e-38
-0.15616383 0.19343652 0.53014708 2.1572707e-38
-0.14744963 0.19159935 0.53344446 2.2128399e-38
-0.22001526 0.20878477 0.53600001 2.341769e-38
-0.21374348 0.20548497 0.53316408 2.3325494e-38
-0.20476215 0.20494293 0.53194046 2.3325494e-38
-0.1946484 0.20472898 0.53182548 2.3325496e-38
-0.18468882 0.20505778 0.53165573 2.341769e-38
-0.17566693 0.20479508 0.53091037 2.3325496e-38
-0.16909525 0.20089525 0.53000003 2.341769e-38
-0.15160684 0.20683731 0.53200006 2.1480883e-38
-0.14806592 0.20580384 0.53426665 2.341769e-38
-0.22186506 0.21601307 0.53570014 2.341769e-38
-0.21463929 0.21491525 0.53328925 2.3325854e-38
-0.20473248 0.21495958 0.53197968 2.3233659e-38
-0.19474694 0.2150622 0.53197974 2.3325494e-38
-0.18508983 0.21503864 0.53105086 2.3325494e-38
-0.176911 0.21250184 0.53045458 2.3325496e-38
-0.15214014 0.21160547 0.53428578 2.341769e-38
-0.22279117 0.22310337 0.53430766 2.341769e-38
-0.21516192 0.22328556 0.53327143 2.3325494e-38
-0.20481122 0.22281967 0.53189629 2.3325494e-38
-0.19505556 0.22279157 0.53088248 2.341769e-38
-0.18480526 0.22283226 0.53060436 2.3325494e-38
-0.17828192 0.22179238 0.53000009 2.341769e-38
-0.1605143 0.22461906 0.53000003 2.1390106e-38
-0.15763381 0.22078906 0.53050005 2.3414449e-38
-0.17640001 0.15994287 0.54000002 1.925813e-38
-0.17588572 0.16097143 0.54000002 1.9810567e-38
0.068001531 0.12711926 0.84800005 9.1476764e-41
0.075178809 0.1265153 0.84799981 9.1476764e-41
0.085146122 0.12714234 0.84799999 9.1476764e-41
0.092068575 0.12841144 0.84800005 9.1476764e-41
0.058633149 0.13777982 0.84800005 9.1476764e-41
0.064909168 0.13529682 0.84710783 9.1476764e-41
0.074920416 0.13452809 0.84585708 9.1476764e-41
0.085420683 0.13457252 0.84614265 9.1476764e-41
0.094370298 0.13564929 0.84781229 9.1476764e-41
0.10159848 0.13713373 0.84800005 9.1476764e-41
0.057340953 0.14537145 0.84799987 9.1476764e-41
0.064529851 0.14519985 0.84699982 9.1476764e-41
0.074842855 0.14485715 0.84499997 9.1476764e-41
0.085293658 0.1448379 0.84488875 9.1476764e-41
0.094682425 0.14499322 0.84696859 9.1476764e-41
0.10187539 0.14317933 0.84800011 9.1476764e-41
0.057664007 0.15511672 0.84799999 9.1476764e-41
0.064490966 0.15478858 0.84649974 9.1476764e-41
0.074842855 0.1545143 0.84499997 9.1476764e-41
0.085304759 0.15451425 0.84499979 9.1476764e-41
0.094093859 0.15489733 0.84776908 9.1476764e-41
0.10095239 0.15102477 0.84800005 9.1476764e-41
0.057634644 0.16306563 0.84800011 9.1476764e-41
0.06460952 0.16475429 0.84799975 9.1476764e-41
0.074986607 0.16449407 0.84664273 9.1476764e-41
0.085313395 0.16431372 0.84694088 9.1476764e-41
0.092876196 0.16215198 0.84800005 9.1476764e-41
0.067032382 0.17040762 0.84800005 9.1476764e-41
0.076077722 0.17040764 0.84800005 9.1476764e-41
0.082377151 0.17040762 0.84800005 9.1476764e-41
0.069457151 0.10868001 0.85800004 9.1476764e-41
0.074360006 0.10868001 0.85800004 9.1476764e-41
0.049845718 0.11766858 0.85800004 9.1476764e-41
0.055953041 0.11666149 0.85662085 9.1476764e-41
0.065243304 0.11493168 0.85502434 9.1476764e-41
0.074838966 0.11469349 0.8541429 9.1476764e-41
0.084649116 0.11475737 0.8546192 9.1476764e-41
0.094263308 0.1154084 0.85594761 9.1476764e-41
0.10185673 0.11799852 0.8571111 9.1476764e-41
0.046982296 0.12596446 0.85659266 9.1476764e-41
0.05530487 0.12525113 0.85399991 9.1476764e-41
0.06434384 0.12447436 0.85174197 9.1476764e-41
0.07431715 0.12210668 0.85050011 9.1476764e-41
0.085429177 0.12287804 0.85040015 9.1476764e-41
0.095487744 0.12482723 0.85129035 9.1476764e-41
0.10437085 0.12503429 0.85472733 9.1476764e-41
0.11120669 0.12793714 0.85699999 9.1476764e-41
0.038405716 0.13482858 0.85800004 9.1476764e-41
0.044926085 0.13535203 0.85551226 9.1476764e-41
0.054767337 0.1343776 0.85139382 9.1476764e-41
0.062009532 0.13098097 0.85000002 9.1476764e-41
0.098484956 0.13266173 0.85040009 9.1476764e-41
0.10575294 0.13448192 0.85180652 9.1476764e-41
0.11370867 0.13598913 0.85600013 9.1476764e-41
0.038405716 0.14953715 0.85800004 9.1476764e-41
0.044890642 0.14502054 0.85487801 9.1476764e-41
0.052771688 0.14469898 0.8500911 9.1476764e-41
0.099571437 0.14733335 0.85000002 9.1476764e-41
0.10604277 0.1451802 0.85161287 9.1476764e-41
0.11493409 0.14509094 0.85586679 9.1476764e-41
0.038405716 0.15444002 0.85800004 9.1476764e-41
0.044929009 0.15485714 0.8543638 9.1476764e-41
0.05308735 0.15540791 0.85009539 9.1476764e-41
0.098600015 0.15575241 0.85000002 9.1476764e-41
0.10564686 0.15527394 0.85167575 9.1476764e-41
0.11414739 0.15491073 0.85608339 9.1476764e-41
0.045729358 0.16460015 0.85521221 9.1476764e-41
0.053938679 0.16617002 0.85143995 9.1476764e-41
0.089047626 0.16919048 0.85000002 9.1476764e-41
0.096288152 0.16602659 0.85069233 9.1476764e-41
0.10498285 0.16526823 0.85325009 9.1476764e-41
0.11379098 0.16510695 0.85681492 9.1476764e-41
0.047507264 0.17341657 0.85637498 9.1476764e-41
0.055352833 0.17502013 0.85473347 9.1476764e-41
0.064933211 0.17485666 0.85337955 9.1476764e-41
0.074544109 0.17576748 0.85193747 9.1476764e-41
0.084898174 0.17538896 0.85177159 9.1476764e-41
0.094591983 0.17495555 0.85357153 9.1476764e-41
0.10458054 0.17501079 0.85618764 9.1476764e-41
0.11247687 0.17303202 0.85757136 9.1476764e-41
0.056613185 0.18178096 0.85769224 9.1476764e-41
0.065258533 0.18250859 0.85654545 9.1476764e-41
0.075445831 0.1834977 0.8558889 9.1476764e-41
0.084349237 0.18426777 0.85626084 9.1476764e-41
0.094229124 0.18157499 0.85714281 9.1476764e-41
0.10316429 0.18140574 0.85799992 9.1476764e-41
0.067707628 0.099084765 0.86700004 9.1476764e-41
0.074873857 0.0978311 0.86654544 9.1476764e-41
0.082415856 0.098040439 0.86772722 9.1476764e-41
0.048773333 0.10911906 0.86800003 9.1476764e-41
0.055328574 0.10739508 0.86611998 9.1476764e-41
0.064994268 0.10464229 0.8639285 9.1476764e-41
0.075585462 0.10468332 0.86181819 9.1476764e-41
0.085340716 0.10505591 0.86297232 9.1476764e-41
0.094856635 0.10526676 0.86486489 9.1476764e-41
0.1031828 0.10714193 0.86673343 9.1476764e-41
0.037311025 0.11653837 0.86785722 9.1476764e-41
0.044898704 0.11513831 0.86389482 9.1476764e-41
0.054062422 0.1119018 0.86100012 9.1476764e-41
0.061428577 0.11057144 0.86000001 9.1476764e-41
0.097876191 0.11098096 0.86000001 9.1476764e-41
0.1057758 0.1140343 0.86226672 9.1476764e-41
0.1137162 0.11593649 0.8671304 9.1476764e-41
0.035935204 0.12591413 0.86673081 9.1476764e-41
0.042666946 0.12393825 0.86238098 9.1476764e-41
0.10811429 0.12121905 0.86000001 9.1476764e-41
0.11535843 0.1245357 0.86324131 9.1476764e-41
0.12268123 0.12704763 0.86785716 9.1476764e-41
0.028966669 0.13490191 0.86900002 9.1476764e-41
0.034831963 0.13503447 0.86456257 9.1476764e-41
0.040133335 0.13104764 0.86000001 9.1476764e-41
0.11766031 0.13342926 0.86115402 9.1476764e-41
0.1244005 0.13559674 0.86664295 9.1476764e-41
0.028966669 0.14979906 0.86900002 9.1476764e-41
0.034673247 0.1449127 0.86411434 9.1476764e-41
0.040133335 0.14169525 0.86000001 9.1476764e-41
0.1242606 0.14513078 0.8647418 9.1476764e-41
0.028966671 0.15310954 0.86900008 9.1476764e-41
0.034431402 0.15494435 0.86394286 9.1476764e-41
0.11876191 0.15480001 0.86000007 9.1476764e-41
0.12417497 0.15470894 0.86572009 9.1476764e-41
0.035341211 0.16471614 0.86446667 9.1476764e-41
0.040782619 0.16702741 0.86075008 9.1476764e-41
0.1189592 0.16489933 0.86142862 9.1476764e-41
0.1236838 0.16435297 0.8652274 9.1476764e-41
0.036619052 0.17319241 0.86733335 9.1476764e-41
0.043369625 0.17579119 0.86273688 9.1476764e-41
0.11302857 0.17527619 0.86000001 9.1476764e-41
0.04914286 0.18100953 0.86000001 9.1476764e-41
0.056050241 0.18592279 0.86125004 9.1476764e-41
0.064362228 0.18787049 0.86266673 9.1476764e-41
0.074271515 0.18824239 0.86138463 9.1476764e-41
0.086760826 0.18885772 0.86057156 9.1476764e-41
0.095105968 0.18688902 0.86126316 9.1476764e-41
0.10530128 0.186074 0.86100006 9.1476764e-41
0.057986356 0.19099717 0.86566675 9.1476764e-41
0.064895473 0.19220763 0.86662507 9.1476764e-41
0.074896909 0.19475085 0.86600018 9.1476764e-41
0.084748872 0.19455829 0.865435 9.1476764e-41
0.095824033 0.1941278 0.86623079 9.1476764e-41
0.10347548 0.1935593 0.86574996 9.1476764e-41
0.076374501 0.088443913 0.87700009 9.1476764e-41
0.085048303 0.087909535 0.87671441 9.1476764e-41
0.05685183 0.097720884 0.87575006 9.1476764e-41
0.064727291 0.096020475 0.87278277 9.1476764e-41
0.074662946 0.092996381 0.87523824 9.1476764e-41
0.085581474 0.094019979 0.87425011 9.1476764e-41
0.094762444 0.0964211 0.87432003 9.1476764e-41
0.10208176 0.098184928 0.87616676 9.1476764e-41
0.04609384 0.10673933 0.87441188 9.1476764e-41
0.054272689 0.10247088 0.87252647 9.1476764e-41
0.060555242 0.10037239 0.87100005 9.1476764e-41
0.095395245 0.10037239 0.87100011 9.1476764e-41
0.10576258 0.1036763 0.87370014 9.1476764e-41
0.11469103 0.10537346 0.87424999 9.1476764e-41
0.12114786 0.10782786 0.87424999 9.1476764e-41
0.035454709 0.11579885 0.87477791 9.1476764e-41
0.04271448 0.11086114 0.87260008 9.1476764e-41
0.11677621 0.11234699 0.87166685 9.1476764e-41
0.12292869 0.1158141 0.87552643 9.1476764e-41
0.028274862 0.12557487 0.87320012 9.1476764e-41
0.031925283 0.12370088 0.87172747 9.1476764e-41
0.12580068 0.12376731 0.87373918 9.1476764e-41
0.13053429 0.12887144 0.87300003 9.1476764e-41
0.02783275 0.13508315 0.87346166 9.1476764e-41
0.030692384 0.13438287 0.87100005 9.1476764e-41
0.1285762 0.13189429 0.87100005 9.1476764e-41
0.13151826 0.13567065 0.87216681 9.1476764e-41
0.026649982 0.14521115 0.87343484 9.1476764e-41
0.030692384 0.14350763 0.87100005 9.1476764e-41
0.13291627 0.14454341 0.87225002 9.1476764e-41
0.025298141 0.15515462 0.87442315 9.1476764e-41
0.1285762 0.15760952 0.87100005 9.1476764e-41
0.13245592 0.15403734 0.8715716 9.1476764e-41
0.027743114 0.16441831 0.87573349 9.1476764e-41
0.03074524 0.16619191 0.87250006 9.1476764e-41
0.12829971 0.16286319 0.87100017 9.1476764e-41
0.13115694 0.1624945 0.87100017 9.1476764e-41
0.028675875 0.17178129 0.87700003 9.1476764e-41
0.033993736 0.17526263 0.87425011 9.1476764e-41
0.038626034 0.1814597 0.87533343 9.1476764e-41
0.040740002 0.18042001 0.87300003 9.1476764e-41
0.058941275 0.19785494 0.87166679 9.1476764e-41
0.064304285 0.19769168 0.87262511 9.1476764e-41
0.07106255 0.19936225 0.87100005 9.1476764e-41
0.085993968 0.19963875 0.87100017 9.1476764e-41
0.092788175 0.19920425 0.87100017 9.1476764e-41
0.058896195 0.2015743 0.87100005 9.1476764e-41
0.065048441 0.20190467 0.87242872 9.1476764e-41
0.074953675 0.203576 0.8745001 9.1476764e-41
0.084774926 0.20279114 0.87266678 9.1476764e-41
0.092494607 0.20243654 0.87233347 9.1476764e-41
0.065476127 0.088396482 0.88293755 9.1476764e-41
0.074217997 0.086882539 0.88000005 9.1476764e-41
0.092400007 0.089040004 0.88200003 9.1476764e-41
0.047395721 0.09769246 0.88650006 9.1476764e-41
0.055181365 0.094524406 0.88313037 9.1476764e-41
0.064719692 0.091979682 0.88066673 9.1476764e-41
0.095713422 0.092032216 0.88363642 9.1476764e-41
0.10559065 0.096439108 0.88227779 9.1476764e-41
0.11123125 0.098480776 0.88080007 9.1476764e-41
0.038680002 0.10724001 0.88511115 9.1476764e-41
0.044057105 0.10333616 0.88349998 9.1476764e-41
0.10895239 0.10140953 0.88000005 9.1476764e-41
0.11146668 0.10140953 0.88000005 9.1476764e-41
0.034296013 0.11268232 0.88381255 9.1476764e-41
0.12775676 0.11550272 0.88030779 9.1476764e-41
0.025593653 0.1296616 0.88600004 9.1476764e-41
0.12990478 0.12320001 0.88000005 9.1476764e-41
0.13158096 0.12320001 0.88000005 9.1476764e-41
0.018428002 0.13626345 0.88760006 9.1476764e-41
0.023490045 0.13522235 0.88390911 9.1476764e-41
0.017229117 0.14527611 0.88561904 9.1476764e-41
0.02219497 0.14421567 0.88185716 9.1476764e-41
0.017884575 0.1540141 0.88306665 9.1476764e-41
0.020952385 0.15420954 0.88000005 9.1476764e-41
0.018967241 0.16231048 0.88120002 9.1476764e-41
0.023020217 0.16543801 0.88077784 9.1476764e-41
0.02545098 0.17409225 0.88104761 9.1476764e-41
0.031428572 0.17725715 0.88000005 9.1476764e-41
0.02851524 0.18272972 0.8858 9.1476764e-41
0.034662183 0.18540175 0.88314301 9.1476764e-41
0.037646133 0.19381839 0.88581252 9.1476764e-41
0.045595642 0.19661881 0.88405257 9.1476764e-41
0.044772383 0.20020859 0.88700002 9.1476764e-41
0.056933027 0.088194825 0.89522225 9.1476764e-41
0.061405245 0.08699096 0.89550006 9.1476764e-41
0.039360005 0.098828577 0.89200008 9.1476764e-41
0.044570863 0.096098676 0.89300007 9.1476764e-41
0.052972861 0.092154197 0.89429998 9.1476764e-41
0.097585723 0.090797149 0.89100003 9.1476764e-41
0.10233787 0.092570722 0.89175004 9.1476764e-41
0.03517548 0.10539486 0.89366668 9.1476764e-41
0.031397145 0.11116286 0.89100003 9.1476764e-41
0.018220572 0.1278846 0.89400005 9.1476764e-41
0.024048913 0.12644619 0.89278573 9.1476764e-41
0.017654169 0.13166393 0.89337504 9.1476764e-41
0.021250002 0.13089858 0.89250004 9.1476764e-41
0.43946669 0.35072002 0.89600003 1.5208037e-38
0.04891143 0.091816194 0.90100002 9.1476764e-41
-0.22137907 0.34849906 0.90800005 2.341769e-38
0.42436671 0.35822287 0.90200001 1.3466037e-38
0.44675815 0.35699797 0.90492308 1.4383679e-38
0.45077622 0.35769051 0.90500003 1.3180859e-38
0.41914624 0.36475906 0.90650004 1.3826197e-38
0.42532501 0.36446729 0.90586376 1.3184428e-38
0.43260893 0.36353204 0.90666676 1.419967e-38
0.44723925 0.36516541 0.90800011 1.641341e-38
0.45140576 0.36492956 0.90800005 1.6778949e-38
0.42978668 0.3753067 0.90800011 2.0463516e-38
-0.23230669 0.33972669 0.91700006 2.341769e-38
-0.22469622 0.33947718 0.917 2.341769e-38
-0.21833335 0.33972669 0.91700006 2.341769e-38
-0.23302041 0.34525856 0.91500008 2.341769e-38
-0.2250926 0.34460932 0.91381842 2.341769e-38
-0.21732351 0.34347105 0.91506249 2.3416961e-38
-0.23250318 0.35092992 0.91433334 2.341769e-38
-0.22781526 0.35041812 0.91300005 2.341769e-38
-0.2844452 0.25692478 0.92610019 2.341769e-38
-0.27552801 0.25590912 0.92609072 2.341769e-38
-0.26809427 0.25632289 0.92700005 2.341769e-38
-0.28242496 0.26358691 0.92440015 2.341769e-38
-0.27475283 0.26503262 0.9251287 2.341769e-38
-0.26613557 0.26547548 0.92633337 2.341769e-38
-0.28174156 0.27362761 0.92620009 2.341769e-38
-0.27527088 0.27289173 0.92610008 2.341769e-38
-0.26601166 0.27253121 0.92700011 2.341769e-38
-0.2547043 0.27765858 0.92700005 2.341769e-38
-0.24720001 0.2851629 0.92700005 2.341769e-38
-0.23183517 0.30499786 0.92558348 2.3417689e-38
-0.22721168 0.3075093 0.92650008 2.064569e-38
-0.23323068 0.31554767 0.92411774 2.341769e-38
-0.22550811 0.31536031 0.92494422 2.0921921e-38
-0.21893215 0.31660289 0.92600012 8.4845932e-39
-0.2322778 0.32213494 0.92500007 2.341769e-38
-0.22564377 0.32524705 0.92549992 2.2773039e-38
-0.21602033 0.32627416 0.92675006 1.6029096e-38
-0.20923716 0.32930574 0.92700005 2.341769e-38
-0.2329981 0.33674479 0.92320013 2.341769e-38
-0.22527371 0.33422831 0.9222635 2.341769e-38
-0.21513928 0.33498508 0.92309296 1.667879e-38
-0.20819908 0.33583194 0.92553347 2.1941852e-38
-0.21295772 0.34206739 0.92128581 1.4373146e-38
-0.20882897 0.3424122 0.9252001 1.834371e-38
-0.30787146 0.19900097 0.93700004 2.341769e-38
-0.30401778 0.20601387 0.93642116 2.341769e-38
-0.29649356 0.20881714 0.93700016 2.341769e-38
-0.30089813 0.21178699 0.93566674 2.341769e-38
-0.29454991 0.21520431 0.93606675 2.341769e-38
-0.28777403 0.21629375 0.93638474 2.341769e-38
-0.29456565 0.22428459 0.93576199 2.341769e-38
-0.28525501 0.22497742 0.93572718 2.341769e-38
-0.27669811 0.2267675 0.93620026 2.341769e-38
-0.29129529 0.23445475 0.93250012 2.341769e-38
-0.28496027 0.23435551 0.93267715 2.341769e-38
-0.27518302 0.23501636 0.93464106 2.341769e-38
-0.26674601 0.2371904 0.93628603 2.341769e-38
-0.29208902 0.24414805 0.93220013 2.341769e-38
-0.28488535 0.24494725 0.93186653 2.341769e-38
-0.27515209 0.24497332 0.93197197 2.341769e-38
-0.26512304 0.24525161 0.93416661 2.341769e-38
-0.2587443 0.24446812 0.93683356 2.341769e-38
-0.2917119 0.25208575 0.93342865 2.341769e-38
-0.2854054 0.25231332 0.93066686 2.341769e-38
-0.27368572 0.25124764 0.93000019 2.341769e-38
-0.26396286 0.25445324 0.93232137 2.341769e-38
-0.25615418 0.25581402 0.93615395 2.341769e-38
-0.24629717 0.25968286 0.93700004 2.3417666e-38
-0.26260805 0.26300204 0.93155575 2.341769e-38
-0.25484231 0.26512992 0.93394583 2.341769e-38
-0.24458498 0.26546091 0.93562841 2.1571977e-38
-0.23770459 0.26748419 0.93620008 1.3809156e-38
-0.28077143 0.27722859 0.93000007 2.341769e-38
-0.27515906 0.27811718 0.93100011 2.341769e-38
-0.26370895 0.27679017 0.93112516 2.341769e-38
-0.25508931 0.27431136 0.93062508 2.341769e-38
-0.24507557 0.27526787 0.93236089 2.341769e-38
-0.23570845 0.27529725 0.93589658 1.4372491e-38
-0.22862802 0.27753052 0.9370001 2.0740456e-38
-0.27248573 0.28050002 0.93500006 2.341769e-38
-0.26373839 0.28316632 0.93205571 2.341769e-38
-0.25478142 0.28335956 0.93050021 2.341769e-38
-0.24401194 0.28460944 0.93118519 2.341769e-38
-0.23506825 0.28444377 0.93342841 1.7698671e-38
-0.22591138 0.28559422 0.93536663 1.9816692e-38
-0.21906571 0.28822535 0.93580002 2.341769e-38
-0.24054478 0.2920267 0.93200004 2.341769e-38
-0.23475005 0.29449648 0.93170357 2.2862706e-38
-0.22585964 0.29468787 0.9328233 1.5482783e-38
-0.21885638 0.29512945 0.93518192 2.341769e-38
-0.23410742 0.3007406 0.93040007 2.3417683e-38
-0.22431229 0.3042503 0.93193334 1.3731772e-38
-0.22054288 0.31177145 0.93000007 1.2809128e-38
-0.21485902 0.31545699 0.93200004 2.2034409e-38
-0.21379943 0.32271025 0.93030792 2.0647165e-38
0.47219431 0.10744001 0.94800007 6.4464914e-40
0.47310004 0.1191 0.94500005 1.7556812e-39
-0.51232129 0.14435685 0.94800007 2.3325853e-38
-0.50590104 0.14596193 0.94800013 2.1396231e-38
-0.49524239 0.14736545 0.94718182 1.8628591e-38
0.47534603 0.14595808 0.94273919 4.6097675e-40
-0.50289154 0.15800001 0.94800007 2.2772682e-38
-0.49503163 0.15472846 0.94459075 1.9351778e-38
-0.48894289 0.15700001 0.94200003 1.7249617e-38
-0.32171813 0.15539177 0.94800007 2.341769e-38
-0.31544691 0.15781221 0.94760001 2.341769e-38
-0.30787432 0.15980573 0.94800007 2.341769e-38
-0.50309348 0.1637266 0.94770002 1.7524414e-38
-0.49551228 0.16471714 0.94557136 1.7887447e-38
-0.32103023 0.16548082 0.94800007 2.341769e-38
-0.31466165 0.16499192 0.94667989 2.341769e-38
-0.30779895 0.1655985 0.94776928 2.341769e-38
-0.49747431 0.17064001 0.94800007 2.1764651e-38
-0.32051432 0.17064001 0.94800007 2.341769e-38
-0.31339341 0.17423406 0.9445383 2.341769e-38
-0.30485949 0.17461178 0.9462353 2.341769e-38
-0.29667243 0.17754668 0.94760001 2.341769e-38
-0.31213966 0.18351565 0.94180006 2.341769e-38
-0.30516171 0.18489216 0.94241661 2.341769e-38
-0.29543519 0.18559104 0.9449116 2.341769e-38
-0.28724638 0.1871229 0.94776928 2.341769e-38
-0.47070003 0.19350001 0.94500005 1.7246037e-38
-0.46324503 0.1971193 0.94725001 1.9181042e-38
-0.31130859 0.19109145 0.94200003 2.341769e-38
-0.30502737 0.19513397 0.94157565 2.341769e-38
-0.29527751 0.19497746 0.94199991 2.341769e-38
-0.2855351 0.19478714 0.94561756 2.341769e-38
-0.27638069 0.1974162 0.94699997 2.341769e-38
-0.45972717 0.20101859 0.94650006 1.3643633e-38
-0.30438098 0.20232381 0.94000006 2.341769e-38
-0.2950232 0.20416585 0.9406454 2.341769e-38
-0.28540742 0.20463055 0.94238877 2.341769e-38
-0.27527514 0.20510608 0.94458324 2.341769e-38
-0.26668099 0.2074763 0.94694114 2.3233659e-38
-0.29095241 0.21038097 0.94000006 2.341769e-38
-0.28392503 0.21454582 0.94111127 2.341769e-38
-0.2745572 0.21533859 0.94211102 2.341769e-38
-0.26474774 0.21507937 0.94563627 2.3416603e-38
-0.2575008 0.21561658 0.94780004 1.4453494e-38
-0.28200004 0.22112384 0.94000006 2.341769e-38
-0.27345937 0.22438543 0.94116682 2.341769e-38
-0.26417357 0.22443925 0.94299966 2.341769e-38
-0.2551569 0.22603522 0.94606441 1.7781525e-38
-0.27125716 0.23276192 0.94000006 2.341769e-38
-0.26411191 0.23392859 0.94029653 2.341769e-38
-0.25465751 0.23491831 0.9421621 2.1383611e-38
-0.25383097 0.24525408 0.94107163 2.3049628e-38
-0.24466528 0.24427158 0.94340616 1.5197167e-38
-0.49301061 0.25269672 0.94476926 2.341769e-38
-0.48427355 0.25448483 0.94441932 2.341769e-38
-0.25228816 0.25348333 0.94093353 2.341769e-38
-0.24504414 0.25479028 0.94118756 1.658334e-38
-0.2417143 0.26051429 0.94000006 1.0233379e-38
-0.33119431 0.1058362 0.95800006 2.341769e-38
-0.3256169 0.10762695 0.95770007 2.341769e-38
-0.31842098 0.10857334 0.95800006 2.341769e-38
-0.33150938 0.11554363 0.9568001 2.341769e-38
-0.32435381 0.11462149 0.95628577 2.341769e-38
-0.31738323 0.11810654 0.95762515 2.341769e-38
-0.33171567 0.12447484 0.95800018 2.341769e-38
-0.32474127 0.12462089 0.95511991 2.341769e-38
-0.31534016 0.1250184 0.95617867 2.341769e-38
-0.30851513 0.1262996 0.95800018 2.341769e-38
-0.53313464 0.13929018 0.95800012 2.341769e-38
-0.52347159 0.13746621 0.95590013 2.2956705e-38
-0.51438063 0.134883 0.95364004 1.3829391e-38
-0.50503778 0.13627401 0.9537037 1.8167617e-38
-0.49807984 0.13848668 0.95540011 1.216744e-38
-0.33077943 0.13467963 0.9568001 2.341769e-38
-0.32447451 0.13451366 0.95433331 2.341769e-38
-0.3148565 0.13467841 0.95550019 2.341769e-38
-0.30480838 0.13542181 0.95690012 2.341769e-38
-0.29697731 0.13790831 0.95770019 2.341769e-38
-0.54134601 0.14476445 0.95800012 2.0560005e-38
-0.53467423 0.14487308 0.95500022 2.1575229e-38
-0.52529246 0.14515887 0.95259988 2.3234018e-38
-0.51549047 0.14482746 0.95014292 2.2772685e-38
-0.50480068 0.14447914 0.95000029 1.9733851e-38
-0.49420172 0.14355572 0.95200014 1.5494311e-38
-0.48971242 0.14627239 0.95400006 1.5401412e-38
-0.47181687 0.14795461 0.95700014 1.374551e-38
-0.46708268 0.14689486 0.95508349 1.7244605e-38
-0.33015716 0.14097621 0.95500004 2.341769e-38
-0.32399583 0.14446434 0.95204157 2.341769e-38
-0.31540701 0.14535041 0.95247024 2.341769e-38
-0.30519789 0.14514114 0.95334256 2.341769e-38
-0.29483783 0.14468946 0.95550007 2.341769e-38
-0.28720504 0.14568743 0.95778584 2.3325852e-38
-0.54334545 0.1557053 0.95676476 2.1944718e-38
-0.53522438 0.15500295 0.95586675 2.0004318e-38
-0.52466345 0.15524223 0.95271432 2.0562537e-38
-0.51480955 0.15471426 0.95000011 1.7240618e-38
-0.50633341 0.15385716 0.94999999 2.0837667e-38
-0.4817372 0.15966667 0.95800006 1.8546104e-38
-0.47394159 0.1550874 0.95623535 2.1114957e-38
-0.46462974 0.15454929 0.95242316 1.7247476e-38
-0.4559868 0.15579441 0.9566251 2.0195903e-38
-0.32179368 0.15230161 0.95000005 2.341769e-38
-0.31423888 0.15354477 0.95060009 2.341769e-38
-0.30486375 0.15505235 0.953161 2.341769e-38
-0.29481235 0.15468609 0.9554168 2.341769e-38
-0.28494272 0.15537757 0.95670015 2.2957428e-38
-0.2760089 0.15797986 0.95700014 1.4364845e-38
-0.54178673 0.16486903 0.95270592 2.3049629e-38
-0.53420907 0.16483331 0.9531613 2.341769e-38
-0.52497578 0.16511315 0.95332122 2.341769e-38
-0.51467341 0.16476214 0.95111114 1.7694011e-38
-0.50719583 0.16572769 0.95019996 1.7338951e-38
-0.48402849 0.16595225 0.95711774 1.8992354e-38
-0.47669643 0.16458896 0.95612508 2.1852178e-38
-0.46776193 0.16014287 0.95000005 2.341769e-38
-0.4535864 0.16193113 0.95700014 2.2683006e-38
-0.44980383 0.16331621 0.95800006 7.7683054e-39
-0.30362433 0.1642983 0.9514401 2.341769e-38
-0.29460099 0.16514444 0.95277774 2.341769e-38
-0.28504017 0.16493441 0.95485187 2.341769e-38
-0.27493155 0.16477861 0.95590007 1.6028734e-38
-0.54220933 0.17430459 0.95620006 2.2404983e-38
-0.53486168 0.17545098 0.95592862 2.3233659e-38
-0.52478349 0.17464028 0.95633346 2.2680493e-38
-0.51436728 0.17547941 0.95388001 1.2080946e-38
-0.50475854 0.17521635 0.95323074 1.6965857e-38
-0.49556267 0.17604545 0.9543044 2.0561091e-38
-0.48455822 0.17454654 0.9545666 2.0005772e-38
-0.47739702 0.17537893 0.95480007 1.6872596e-38
-0.29426482 0.17374916 0.95042855 2.341769e-38
-0.28508267 0.17452562 0.95374298 2.341769e-38
-0.27467391 0.17441317 0.95454299 1.9632246e-38
-0.53441447 0.18356808 0.95757157 2.2958152e-38
-0.52498406 0.18411849 0.95800012 2.1475105e-38
-0.51458877 0.18517542 0.95744461 1.1802916e-38
-0.5037877 0.18449852 0.95430434 2.1759259e-38
-0.49443868 0.1850992 0.95382345 1.8810424e-38
-0.48542696 0.18359271 0.95588899 1.7703419e-38
-0.47724652 0.18299821 0.95681834 2.2313153e-38
-0.45400667 0.18687439 0.95511121 1.8445643e-38
-0.44626212 0.18647701 0.95374984 1.6219272e-38
-0.29133335 0.18185717 0.94999999 2.341769e-38
-0.28401282 0.1833187 0.95065236 2.341769e-38
-0.27526334 0.18510795 0.95167643 2.3141458e-38
-0.53252637 0.19251239 0.95800006 2.0194121e-38
-0.52446479 0.19497494 0.95755017 1.6592376e-38
-0.5142504 0.19472086 0.95470941 1.6044959e-38
-0.50560689 0.19418509 0.95491314 2.1297929e-38
-0.49772638 0.19302192 0.95600003 2.3417689e-38
-0.47276339 0.19256191 0.95600009 2.0011868e-38
-0.46461871 0.19645041 0.95222247 1.9917527e-38
-0.45514992 0.19505568 0.95361525 1.5119086e-38
-0.44684735 0.19417806 0.95472229 1.4827342e-38
-0.28138098 0.19090478 0.95000005 2.341769e-38
-0.27426064 0.19372062 0.95071429 2.341769e-38
-0.51344228 0.20429265 0.95608002 1.8256221e-38
-0.47700101 0.20124905 0.954 1.7798134e-38
-0.27052382 0.20176192 0.95000005 2.341769e-38
-0.33422384 0.068928584 0.96500003 1.5470137e-38
-0.34315681 0.076007269 0.96283352 1.5561243e-38
-0.33473724 0.075369053 0.96383309 1.537831e-38
-0.3259432 0.075155757 0.96755987 1.6486792e-38
-0.3128486 0.078442864 0.96900004 2.3417658e-38
-0.35052001 0.080040008 0.96600002 1.5655923e-38
-0.34496307 0.085200422 0.96490473 2.0921913e-38
-0.33499604 0.085008927 0.96200001 2.2955263e-38
-0.32517111 0.084739447 0.96541661 2.3141455e-38
-0.31480515 0.085530207 0.96792847 2.341733e-38
-0.30749604 0.086748593 0.96899998 2.3325489e-38
-0.34348753 0.095216855 0.96473676 2.341769e-38
-0.33464253 0.095211215 0.96216118 2.3417331e-38
-0.32491866 0.095455639 0.96374977 2.3325854e-38
-0.31457499 0.095485985 0.9653998 2.341769e-38
-0.3053416 0.095120832 0.96812487 2.2864865e-38
-0.34351525 0.1036105 0.96699989 2.341769e-38
-0.33556628 0.10489763 0.96238899 2.341769e-38
-0.32442281 0.10406699 0.96214294 2.341769e-38
-0.31377706 0.10537583 0.96318746 2.341769e-38
-0.30455118 0.1048904 0.9660998 2.3325854e-38
-0.27881145 0.10914001 0.96300006 1.7865766e-38
-0.33707446 0.11485573 0.96350002 2.341769e-38
-0.31422219 0.11423531 0.96266669 2.341769e-38
-0.30483714 0.11483945 0.96467978 2.341769e-38
-0.52359724 0.1270224 0.96649998 1.8444569e-38
-0.51716822 0.12678821 0.96613336 1.3553542e-38
-0.4944858 0.12692416 0.96572715 1.6233324e-38
-0.48449606 0.1267627 0.96450001 1.6232601e-38
-0.46439943 0.12471271 0.96703428 1.7700864e-38
-0.45469856 0.12585624 0.96575987 1.5207957e-38
-0.44594494 0.12572652 0.96490914 2.0282704e-38
-0.33648404 0.12508905 0.96400005 2.341769e-38
-0.31211829 0.12114497 0.96219999 2.341769e-38
-0.30469558 0.12429895 0.96203721 2.341769e-38
-0.54223973 0.13527989 0.96370012 2.341769e-38
-0.53516084 0.13483289 0.96313041 2.3325494e-38
-0.52661085 0.13357158 0.96215403 2.0378858e-38
-0.51444405 0.13081564 0.96460003 1.1066058e-38
-0.50444072 0.13233216 0.9641251 1.7429347e-38
-0.49674612 0.13447319 0.96637022 1.7984664e-38
-0.46475369 0.13494639 0.96459991 2.0930586e-38
-0.45575181 0.13461505 0.96444428 2.2220952e-38
-0.44662267 0.13378023 0.96492869 2.28638e-38
-0.3040421 0.13124515 0.96100008 2.341769e-38
-0.55005813 0.14918382 0.96100003 1.7819426e-38
-0.54530513 0.14472464 0.96130788 2.0741479e-38
-0.47530481 0.14443448 0.96368754 1.7887806e-38
-0.46476418 0.14472063 0.96279311 1.9364717e-38
-0.45701438 0.1454038 0.96375 2.000792e-38
-0.29104573 0.14003144 0.96100003 2.341769e-38
-0.54639715 0.15192954 0.96100003 1.5393521e-38
-0.47886878 0.15473963 0.96140003 2.2774836e-38
-0.48736429 0.16245477 0.96100003 2.0841983e-38
-0.54731238 0.17755622 0.96100003 2.2032603e-38
-0.55007815 0.36177146 0.97400004 1.8237794e-38
-0.54514593 0.36395115 0.973261 1.8514018e-38
-0.52662253 0.36554822 0.972 1.926388e-38
-0.43138289 0.36565718 0.97200006 1.9066839e-38
-0.53043431 0.37121144 0.97200006 1.7231968e-38
-0.52562064 0.37158173 0.97200006 1.8332186e-38
-0.5121299 0.37766215 0.97240013 1.7782211e-38
-0.50616139 0.37554398 0.9721539 1.3450796e-38
-0.53460002 0.3837086 0.97200006 1.8608375e-38
-0.52819908 0.38827336 0.97300005 1.8239239e-38
-0.51340353 0.38296482 0.97600007 1.8606931e-38
-0.50422037 0.38358065 0.97343761 1.7321178e-38
-0.49669716 0.3839657 0.972 8.8385625e-39
-0.31098241 0.25179383 0.98650002 2.341769e-38
-0.52145815 0.38664669 0.98300004 1.8512967e-38
-0.51576006 0.38621336 0.98000002 1.8791687e-38
-0.51172179 0.39114043 0.98299998 1.9164033e-38
-0.36271811 0.18895525 0.99700004 1.9983407e-38
-0.36271811 0.1908543 0.99700004 1.9892649e-38
