# .PCD v0.7 - Point Cloud Data file format
VERSION 0.7
FIELDS x y z rgb
SIZE 4 4 4 4
TYPE F F F F
COUNT 1 1 1 1
WIDTH 765
HEIGHT 1
VIEWPOINT 0 0 0 1 0 0 0
POINTS 765
DATA ascii
-0.15202452 0.18817285 0.52900016 1.7790201e-38
-0.16460368 0.1966614 0.52872205 2.341769e-38
-0.15543459 0.19603787 0.52899981 2.0650397e-38
-0.14745829 0.19566615 0.5286563 2.203656e-38
-0.1723294 0.20563385 0.52900016 2.323366e-38
-0.16485523 0.20525639 0.52830285 2.3417689e-38
-0.15637547 0.20447034 0.52830756 2.0834791e-38
-0.14862382 0.20001242 0.52900004 2.3414813e-38
-0.19094382 0.21915716 0.52900004 2.341769e-38
-0.18716526 0.21814954 0.52900004 2.341769e-38
-0.17423403 0.21549486 0.52853924 2.3325494e-38
-0.16487198 0.21513654 0.52779001 2.2864519e-38
-0.15716666 0.21406126 0.52808326 1.9083457e-38
-0.18892857 0.22117239 0.52900004 2.341769e-38
-0.17421673 0.22221343 0.52823526 2.341769e-38
-0.1648196 0.22191116 0.52725655 2.1295771e-38
-0.15917081 0.22206825 0.52833337 2.0562522e-38
-0.17677145 0.15935048 0.53800005 1.7323091e-38
-0.19214326 0.16709635 0.53506052 2.1836325e-38
-0.18478096 0.16503437 0.53439152 1.9631575e-38
-0.17521654 0.16514133 0.53431743 2.0372e-38
-0.16535158 0.16572869 0.53380501 2.3141106e-38
-0.15826832 0.16808374 0.53304768 2.341769e-38
-0.20180993 0.17811739 0.53308338 2.341769e-38
-0.19463131 0.17550126 0.53327328 2.3325494e-38
-0.18521516 0.17513029 0.53253162 2.341769e-38
-0.17509222 0.17492436 0.53215635 2.3325494e-38
-0.16517885 0.17518328 0.53204948 2.2495379e-38
-0.155167 0.17569886 0.53231984 2.2218796e-38
-0.14895082 0.1785032 0.53500003 2.341769e-38
-0.20352459 0.18529372 0.53300035 2.341769e-38
-0.19484428 0.185008 0.53253311 2.341769e-38
-0.18493336 0.18493335 0.53200018 2.341769e-38
-0.17529573 0.18492162 0.53196698 2.341769e-38
-0.16498095 0.18510731 0.53173703 2.3417689e-38
-0.15520668 0.18438776 0.5310812 2.1481955e-38
-0.14883849 0.18535648 0.53218192 2.2957073e-38
-0.21222994 0.19672808 0.53413337 2.341769e-38
-0.20467727 0.19464171 0.53205645 2.341769e-38
-0.194913 0.19474658 0.53178895 2.3325494e-38
-0.18469535 0.19470121 0.53158915 2.341769e-38
-0.17517485 0.19485997 0.53146785 2.3325494e-38
-0.16506639 0.19227779 0.53074008 2.341769e-38
-0.15493461 0.19348747 0.53000009 2.0279458e-38
-0.14818679 0.19157623 0.5304445 2.1483754e-38
-0.21343783 0.20585686 0.53325957 2.341769e-38
-0.20487887 0.20505227 0.53188789 2.3233659e-38
-0.19470352 0.20474477 0.53182381 2.3325494e-38
-0.18494372 0.20482421 0.53149998 2.341769e-38
-0.17583717 0.20478614 0.53089035 2.3325494e-38
-0.16884288 0.20165241 0.53000003 2.341769e-38
-0.15159851 0.20575124 0.53164715 2.092771e-38
-0.14847709 0.20500614 0.53306669 2.3417689e-38
-0.22198755 0.21655342 0.53474081 2.341769e-38
-0.21484753 0.21485215 0.53311622 2.3325854e-38
-0.20472763 0.21500841 0.53197956 2.3325494e-38
-0.19490102 0.21501973 0.53212667 2.341769e-38
-0.18493584 0.21491286 0.5308699 2.3325494e-38
-0.17707488 0.21229042 0.53042859 2.3233659e-38
-0.15215477 0.21142119 0.53300005 2.341769e-38
-0.22264977 0.22332916 0.53384632 2.341769e-38
-0.21496156 0.2232587 0.53305274 2.3325494e-38
-0.20481783 0.2228269 0.53191352 2.3325494e-38
-0.19526468 0.22287823 0.53095925 2.341769e-38
-0.18479046 0.22285691 0.53056264 2.3325496e-38
-0.17832519 0.22202316 0.53000003 2.341769e-38
-0.16101906 0.22461906 0.53000003 1.9734566e-38
-0.17543811 0.15934762 0.54500002 2.2956719e-38
-0.17607315 0.16077068 0.54280007 2.1380784e-38
0.067678481 0.1274423 0.84800005 9.1476764e-41
0.07510858 0.12586434 0.84799981 9.1476764e-41
0.086415254 0.12841144 0.84800005 9.1476764e-41
0.058956195 0.13729525 0.84800005 9.1476764e-41
0.065112978 0.13555475 0.84765685 9.1476764e-41
0.075053304 0.13477206 0.84738767 9.1476764e-41
0.085405037 0.13455008 0.8459999 9.1476764e-41
0.093795247 0.13594024 0.8473075 9.1476764e-41
0.10095239 0.1397181 0.84800005 9.1476764e-41
0.057170931 0.14541395 0.84799987 9.1476764e-41
0.064472303 0.14507093 0.84624976 9.1476764e-41
0.074842855 0.14485715 0.84499997 9.1476764e-41
0.085293658 0.14483793 0.84488875 9.1476764e-41
0.095134772 0.14511429 0.84649974 9.1476764e-41
0.10167027 0.14420488 0.84800005 9.1476764e-41
0.056331433 0.15526478 0.84799981 9.1476764e-41
0.064490959 0.15478858 0.8464998 9.1476764e-41
0.074842855 0.15451433 0.84499997 9.1476764e-41
0.085299216 0.15450408 0.8449443 9.1476764e-41
0.094553277 0.15503506 0.84712893 9.1476764e-41
0.05792832 0.16350615 0.84800011 9.1476764e-41
0.064597629 0.16472258 0.8478331 9.1476764e-41
0.075017422 0.16456273 0.84699988 9.1476764e-41
0.085474126 0.16449919 0.8466664 9.1476764e-41
0.094074175 0.16392303 0.84787482 9.1476764e-41
0.064609528 0.17040764 0.84800005 9.1476764e-41
0.076723814 0.17067686 0.84800005 9.1476764e-41
0.085607633 0.17040764 0.84800005 9.1476764e-41
0.049300961 0.11794096 0.85800004 9.1476764e-41
0.055701915 0.11651285 0.85593349 9.1476764e-41
0.065232486 0.11533087 0.85505277 9.1476764e-41
0.074845858 0.11470268 0.85423815 9.1476764e-41
0.084617332 0.11471185 0.85428578 9.1476764e-41
0.094047919 0.11586359 0.8560589 9.1476764e-41
0.10200845 0.11855975 0.85685718 9.1476764e-41
0.046993554 0.12611429 0.8564617 9.1476764e-41
0.055290267 0.12521882 0.85377789 9.1476764e-41
0.064410262 0.12445031 0.85193539 9.1476764e-41
0.073694296 0.12174605 0.85033339 9.1476764e-41
0.084913857 0.12448601 0.85051441 9.1476764e-41
0.095171548 0.12490783 0.85166663 9.1476764e-41
0.10447512 0.12501501 0.85450006 9.1476764e-41
0.110687 0.12781906 0.85666668 9.1476764e-41
0.038405716 0.13973144 0.85800004 9.1476764e-41
0.044917956 0.13532872 0.85536581 9.1476764e-41
0.054806121 0.13447344 0.85199988 9.1476764e-41
0.06210205 0.13148981 0.85000002 9.1476764e-41
0.097923934 0.13336465 0.85062516 9.1476764e-41
0.10522209 0.13480216 0.8517648 9.1476764e-41
0.11280605 0.13573873 0.85647058 9.1476764e-41
0.038405716 0.14300001 0.85800004 9.1476764e-41
0.044768486 0.14490971 0.85480976 9.1476764e-41
0.052940864 0.14446554 0.85045469 9.1476764e-41
0.1063353 0.14491476 0.85137939 9.1476764e-41
0.11486732 0.14517511 0.85620701 9.1476764e-41
0.045272749 0.15460442 0.85385358 9.1476764e-41
0.052214291 0.15502383 0.85000008 9.1476764e-41
0.099571437 0.15461905 0.85000002 9.1476764e-41
0.10548889 0.15511425 0.85131568 9.1476764e-41
0.1142678 0.15468839 0.8557601 9.1476764e-41
0.046619736 0.16492681 0.85457152 9.1476764e-41
0.053794134 0.16592976 0.8512001 9.1476764e-41
0.097847462 0.16661318 0.85036367 9.1476764e-41
0.10477966 0.16525105 0.8528387 9.1476764e-41
0.11397081 0.16526783 0.8568002 9.1476764e-41
0.048223272 0.17460749 0.85614288 9.1476764e-41
0.055335183 0.17496604 0.8544668 9.1476764e-41
0.065203592 0.17569563 0.85253859 9.1476764e-41
0.074624531 0.17566538 0.85199994 9.1476764e-41
0.084833436 0.17592542 0.85148394 9.1476764e-41
0.094504423 0.1749696 0.85278571 9.1476764e-41
0.10451059 0.17489572 0.85562527 9.1476764e-41
0.11217983 0.17333366 0.8568235 9.1476764e-41
0.049845718 0.18140572 0.85800004 9.1476764e-41
0.054748572 0.18149652 0.85799992 9.1476764e-41
0.065332472 0.18302719 0.85654557 9.1476764e-41
0.074901953 0.1836265 0.85619056 9.1476764e-41
0.08423353 0.18388192 0.85619992 9.1476764e-41
0.094499804 0.18165058 0.85707688 9.1476764e-41
0.10374739 0.18094455 0.85774994 9.1476764e-41
0.11031429 0.18058859 0.85800004 9.1476764e-41
0.066855878 0.099046677 0.86666679 9.1476764e-41
0.074903287 0.098124363 0.86744457 9.1476764e-41
0.082534842 0.099300832 0.86785722 9.1476764e-41
0.048660956 0.10886763 0.86600006 9.1476764e-41
0.055191245 0.10714379 0.86696154 9.1476764e-41
0.06477613 0.10492732 0.86409301 9.1476764e-41
0.075430714 0.10504755 0.86267573 9.1476764e-41
0.085424855 0.10495587 0.86267549 9.1476764e-41
0.09490224 0.1051783 0.86486489 9.1476764e-41
0.10303786 0.10685466 0.86725003 9.1476764e-41
0.038898099 0.11586668 0.86900002 9.1476764e-41
0.044985075 0.11489654 0.86491901 9.1476764e-41
0.054365788 0.11166391 0.86121446 9.1476764e-41
0.064704768 0.11057144 0.86000001 9.1476764e-41
0.097290717 0.11162739 0.86025006 9.1476764e-41
0.10555744 0.11422586 0.86249995 9.1476764e-41
0.11390469 0.11587811 0.8664 9.1476764e-41
0.028966669 0.12910858 0.86900002 9.1476764e-41
0.036104389 0.12689935 0.86750013 9.1476764e-41
0.04280857 0.12385961 0.86378258 9.1476764e-41
0.10811429 0.12121905 0.86000001 9.1476764e-41
0.11525469 0.12472415 0.86273342 9.1476764e-41
0.12325607 0.12710993 0.86780012 9.1476764e-41
0.028536191 0.13565144 0.86849999 9.1476764e-41
0.0345545 0.13495393 0.86405557 9.1476764e-41
0.040180001 0.13119906 0.86100006 9.1476764e-41
0.11719266 0.13404801 0.86116678 9.1476764e-41
0.12423544 0.13523194 0.86640745 9.1476764e-41
0.034423508 0.14508872 0.86377138 9.1476764e-41
0.11876191 0.14251429 0.86000001 9.1476764e-41
0.12458622 0.14534281 0.86487877 9.1476764e-41
0.028966669 0.15310954 0.86900002 9.1476764e-41
0.034550671 0.15469129 0.86397052 9.1476764e-41
0.040133335 0.15807621 0.86000001 9.1476764e-41
0.11876191 0.15643811 0.86000007 9.1476764e-41
0.12469637 0.15488964 0.86586207 9.1476764e-41
0.03554647 0.16468185 0.86531031 9.1476764e-41
0.041343682 0.16596492 0.86085725 9.1476764e-41
0.11883096 0.16390336 0.86049998 9.1476764e-41
0.12415278 0.16426188 0.86464012 9.1476764e-41
0.036954641 0.17384036 0.86712503 9.1476764e-41
0.043089528 0.17536645 0.86263645 9.1476764e-41
0.048323814 0.18100953 0.86000001 9.1476764e-41
0.056820009 0.1854232 0.86188883 9.1476764e-41
0.065452576 0.18831658 0.86120003 9.1476764e-41
0.075457528 0.18880878 0.86120003 9.1476764e-41
0.086388759 0.18851297 0.86060011 9.1476764e-41
0.095152117 0.18674833 0.86127788 9.1476764e-41
0.10490739 0.18562216 0.86124992 9.1476764e-41
0.057191439 0.19185838 0.86671436 9.1476764e-41
0.064101472 0.19255465 0.86715388 9.1476764e-41
0.0751082 0.19432633 0.86665213 9.1476764e-41
0.085053802 0.19445361 0.86560881 9.1476764e-41
0.095161811 0.19483215 0.86693537 9.1476764e-41
0.104118 0.19298173 0.86629993 9.1476764e-41
0.093520962 0.20276669 0.86900002 9.1476764e-41
0.069403812 0.089472383 0.87800002 9.1476764e-41
0.076026909 0.089395955 0.87725002 9.1476764e-41
0.08298596 0.088826433 0.87575006 9.1476764e-41
0.056840565 0.097701989 0.87558341 9.1476764e-41
0.065069489 0.095483139 0.87368011 9.1476764e-41
0.074614868 0.093506232 0.87430447 9.1476764e-41
0.084847033 0.09550871 0.8727085 9.1476764e-41
0.094741464 0.09668953 0.87426102 9.1476764e-41
0.10279102 0.097967945 0.87588894 9.1476764e-41
0.11288573 0.099506676 0.87800002 9.1476764e-41
0.046517622 0.10684115 0.87450016 9.1476764e-41
0.054104321 0.10229985 0.87247074 9.1476764e-41
0.09622477 0.10037239 0.87100005 9.1476764e-41
0.10611676 0.10353342 0.87320012 9.1476764e-41
0.11442834 0.10510293 0.87315148 9.1476764e-41
0.12037303 0.10709175 0.87166679 9.1476764e-41
0.036247801 0.11518029 0.87243766 9.1476764e-41
0.042011432 0.1110581 0.87350005 9.1476764e-41
0.11668599 0.11215957 0.87118202 9.1476764e-41
0.1242874 0.11582869 0.87496436 9.1476764e-41
0.027927306 0.12747018 0.87100005 9.1476764e-41
0.034330834 0.12384168 0.87125021 9.1476764e-41
0.12585552 0.12335265 0.87354559 9.1476764e-41
0.13075858 0.12491192 0.87450004 9.1476764e-41
0.025951359 0.13528499 0.87476939 9.1476764e-41
0.1285762 0.13355334 0.87100005 9.1476764e-41
0.13146779 0.13561954 0.8718335 9.1476764e-41
0.026638057 0.14509851 0.8742274 9.1476764e-41
0.1285762 0.14018953 0.87100005 9.1476764e-41
0.13293308 0.14418495 0.87236375 9.1476764e-41
0.025813783 0.15479842 0.8745358 9.1476764e-41
0.13253209 0.15457556 0.87155575 9.1476764e-41
0.027423942 0.16383703 0.87620014 9.1476764e-41
0.030727623 0.16443716 0.8720001 9.1476764e-41
0.1285762 0.16175717 0.87100005 9.1476764e-41
0.13155062 0.16167825 0.87185729 9.1476764e-41
0.029266668 0.17141905 0.87800002 9.1476764e-41
0.033222515 0.17490979 0.87418193 9.1476764e-41
0.037928812 0.18213788 0.87525004 9.1476764e-41
0.041666672 0.1825 0.87500006 9.1476764e-41
0.056903578 0.19688025 0.87225008 9.1476764e-41
0.064652048 0.19763941 0.87350017 9.1476764e-41
0.074561767 0.19926926 0.87128592 9.1476764e-41
0.084255919 0.19967826 0.87100017 9.1476764e-41
0.094842225 0.19880924 0.87100005 9.1476764e-41
0.10298 0.19848382 0.87200004 9.1476764e-41
0.058312196 0.20151868 0.87220001 9.1476764e-41
0.065080963 0.20188922 0.87380004 9.1476764e-41
0.074430279 0.20272866 0.87392867 9.1476764e-41
0.084582202 0.20298925 0.87269241 9.1476764e-41
0.093025185 0.20204833 0.87100017 9.1476764e-41
0.065853976 0.088166088 0.8828001 9.1476764e-41
0.075052142 0.087211199 0.88050008 9.1476764e-41
0.085541382 0.087968469 0.88155556 9.1476764e-41
0.092079051 0.088700004 0.88700002 9.1476764e-41
0.039793335 0.097366676 0.88900006 9.1476764e-41
0.046013441 0.097594999 0.88705266 9.1476764e-41
0.055365972 0.094922364 0.88289481 9.1476764e-41
0.063695237 0.091862865 0.88133341 9.1476764e-41
0.072914287 0.091352388 0.88000005 9.1476764e-41
0.085973546 0.092120424 0.88022232 9.1476764e-41
0.095150076 0.092259325 0.88414294 9.1476764e-41
0.1050892 0.095971778 0.88178575 9.1476764e-41
0.11051556 0.097645722 0.88133335 9.1476764e-41
0.038911432 0.10660985 0.88611114 9.1476764e-41
0.044134244 0.10385631 0.88375992 9.1476764e-41
0.10811429 0.10140953 0.88000005 9.1476764e-41
0.029522223 0.11555525 0.88566673 9.1476764e-41
0.033862736 0.11316065 0.88453341 9.1476764e-41
0.12711112 0.11314287 0.88000005 9.1476764e-41
0.13158096 0.1248762 0.88000005 9.1476764e-41
0.017780002 0.13970003 0.88900012 9.1476764e-41
0.022974161 0.13455628 0.88486677 9.1476764e-41
0.01738086 0.1454519 0.88589996 9.1476764e-41
0.02203634 0.14456734 0.88215393 9.1476764e-41
0.017893745 0.15360069 0.88271433 9.1476764e-41
0.021191841 0.1536109 0.88000011 9.1476764e-41
0.019305399 0.16199875 0.88133335 9.1476764e-41
0.023029633 0.16550285 0.88111115 9.1476764e-41
0.025798168 0.17450093 0.88229632 9.1476764e-41
0.031009525 0.1768381 0.88000005 9.1476764e-41
0.02837651 0.18233874 0.88500011 9.1476764e-41
0.034748338 0.18516962 0.88274997 9.1476764e-41
0.042504005 0.18799201 0.88200009 9.1476764e-41
0.038349211 0.19399258 0.88500011 9.1476764e-41
0.044879463 0.19597717 0.88403857 9.1476764e-41
0.051240005 0.19824001 0.88200003 9.1476764e-41
0.046461906 0.20020859 0.88700002 9.1476764e-41
0.073752388 0.20700954 0.88000005 9.1476764e-41
0.056166198 0.088160805 0.89583337 9.1476764e-41
0.061527468 0.087047145 0.89316672 9.1476764e-41
0.038185719 0.099282861 0.89100003 9.1476764e-41
0.047175717 0.094060175 0.89516681 9.1476764e-41
0.053523816 0.09257511 0.89414287 9.1476764e-41
0.098434292 0.090797149 0.89100003 9.1476764e-41
0.10376573 0.092896007 0.89160007 9.1476764e-41
0.029900003 0.10763906 0.89700007 9.1476764e-41
0.035118818 0.10544413 0.89408338 9.1476764e-41
0.029755559 0.11136763 0.8926667 9.1476764e-41
0.03202159 0.11080192 0.8926667 9.1476764e-41
0.018127859 0.12732406 0.89574999 9.1476764e-41
0.023005717 0.12695619 0.89466667 9.1476764e-41
0.017856985 0.13436238 0.89294446 9.1476764e-41
0.022964766 0.13097143 0.89300007 9.1476764e-41
0.4259086 0.35663432 0.89800006 1.8807953e-38
-0.22101191 0.34705859 0.90650004 2.341769e-38
0.42767653 0.35778067 0.90233338 1.696658e-38
0.42703804 0.36507303 0.90670586 1.3368446e-38
0.43168449 0.36299872 0.90533346 1.3185494e-38
-0.23230669 0.33972669 0.91700006 2.341769e-38
-0.22394764 0.33922765 0.917 2.341769e-38
-0.21920668 0.33972669 0.91700006 2.341769e-38
-0.23286639 0.34527901 0.91500008 2.341769e-38
-0.22523661 0.34454149 0.91400027 2.341769e-38
-0.21754731 0.3434878 0.91493332 2.3417682e-38
-0.23367383 0.35050434 0.91550004 2.341769e-38
-0.22781526 0.35041812 0.91300005 2.341769e-38
-0.27810001 0.24984859 0.92700005 2.341769e-38
-0.28418899 0.25689635 0.92594737 2.341769e-38
-0.27552804 0.25590912 0.92609084 2.341769e-38
-0.26815391 0.25667873 0.92680007 2.341769e-38
-0.28242499 0.26358691 0.92440015 2.341769e-38
-0.27473399 0.26501432 0.92506427 2.341769e-38
-0.26574352 0.26527017 0.92630774 2.341769e-38
-0.28163144 0.27633432 0.92700005 2.341769e-38
-0.27518624 0.27283603 0.92611122 2.341769e-38
-0.26618144 0.27236143 0.92700005 2.341769e-38
-0.25514573 0.27721715 0.92700005 2.341769e-38
-0.25279146 0.2845743 0.92700005 2.341769e-38
-0.24808288 0.28516287 0.92700005 2.341769e-38
-0.23302855 0.30627048 0.92411119 2.3417689e-38
-0.22790602 0.30707183 0.92633349 2.1845317e-38
-0.23304898 0.31513059 0.9234001 2.341769e-38
-0.22568963 0.31531212 0.92517132 2.1197788e-38
-0.21937905 0.31642163 0.92633343 7.4776201e-39
-0.23261178 0.32706448 0.92400014 2.341769e-38
-0.22515289 0.32519868 0.92490906 2.2588648e-38
-0.21589033 0.32646477 0.92656529 1.6214213e-38
-0.20923716 0.32930574 0.92700005 2.341769e-38
-0.23280817 0.33577386 0.92322224 2.341769e-38
-0.22550575 0.33437276 0.92234302 2.341769e-38
-0.21503997 0.33508888 0.92315918 1.6771706e-38
-0.20792182 0.33571875 0.92586678 2.2495381e-38
-0.23043811 0.3408381 0.92000002 2.341769e-38
-0.21377833 0.34226596 0.92122227 1.6678397e-38
-0.20882897 0.3424122 0.9252001 1.8161848e-38
0.47468525 0.14441049 0.93600005 4.6097675e-40
0.47742385 0.15438192 0.93700004 9.3994897e-41
0.48174766 0.15405239 0.93500006 5.5174025e-40
-0.31255716 0.17542382 0.93500006 2.341769e-38
-0.31088573 0.18157144 0.93000007 2.341769e-38
-0.30911431 0.18334287 0.93000007 2.341769e-38
-0.30787146 0.19900097 0.93700004 2.341769e-38
-0.30401427 0.20566405 0.9363811 2.341769e-38
-0.29662749 0.20828171 0.93700022 2.341769e-38
-0.30068415 0.21163653 0.93500012 2.341769e-38
-0.29459023 0.21540003 0.93556243 2.341769e-38
-0.28763673 0.21670561 0.93638474 2.341769e-38
-0.29374102 0.2250614 0.934762 2.341769e-38
-0.28527987 0.22510791 0.93555886 2.341769e-38
-0.27710575 0.22665294 0.93642879 2.341769e-38
-0.29147783 0.23557781 0.93166679 2.341769e-38
-0.28484115 0.23445475 0.93249983 2.341769e-38
-0.27504101 0.23498933 0.93462485 2.341769e-38
-0.26674601 0.23744537 0.93628597 2.341769e-38
-0.29221472 0.2442513 0.9326002 2.341769e-38
-0.28488538 0.24494724 0.93186647 2.341769e-38
-0.275152 0.24497335 0.93197185 2.341769e-38
-0.26495588 0.24533585 0.93399978 2.341769e-38
-0.25815985 0.24567477 0.93633342 2.341769e-38
-0.29176384 0.25173333 0.93400013 2.341769e-38
-0.28535384 0.25226808 0.93050021 2.341769e-38
-0.27302143 0.25132143 0.93000019 2.341769e-38
-0.26410282 0.25478503 0.93214279 2.341769e-38
-0.25567776 0.25550169 0.93606675 2.341769e-38
-0.24683259 0.25932592 0.9370001 2.3417663e-38
-0.2618328 0.26309931 0.9315002 2.341769e-38
-0.25489414 0.26497057 0.93363887 2.341769e-38
-0.24486755 0.26564002 0.93554282 2.2032956e-38
-0.23770459 0.26748419 0.93620008 1.3718035e-38
-0.27510116 0.27811679 0.93060017 2.341769e-38
-0.26380786 0.27674684 0.93117666 2.341769e-38
-0.25502914 0.27436435 0.93048501 2.341769e-38
-0.2450756 0.2752679 0.93236089 2.341769e-38
-0.23598176 0.27533013 0.93581498 1.4096255e-38
-0.22844954 0.27842289 0.93700004 2.0739371e-38
-0.27559763 0.28093764 0.93350005 2.341769e-38
-0.26438668 0.28304633 0.93312514 2.341769e-38
-0.25473672 0.28241062 0.93046176 2.341769e-38
-0.24433124 0.2845577 0.93121433 2.341769e-38
-0.23504126 0.28437185 0.9337939 1.7514629e-38
-0.22583893 0.28562406 0.93561286 2.0000364e-38
-0.21906571 0.28822532 0.93580002 2.341769e-38
-0.24054478 0.29113907 0.93200004 2.341769e-38
-0.23489417 0.29434448 0.93171418 2.2862706e-38
-0.22592342 0.29477096 0.933088 1.5391659e-38
-0.21865049 0.29524606 0.93516678 2.3325854e-38
-0.23408192 0.30058002 0.93100011 2.3417679e-38
-0.22439297 0.30444971 0.93199992 1.3823603e-38
-0.21718873 0.30525294 0.9340384 2.2772688e-38
-0.22113335 0.31147623 0.93000007 1.2890521e-38
-0.21495962 0.31559879 0.93187881 2.1389046e-38
-0.21415459 0.3226248 0.93028599 2.0002877e-38
-0.20766878 0.32526869 0.93222743 2.341769e-38
0.46920574 0.10676001 0.94200003 4.6205995e-40
0.47286835 0.10675497 0.94684619 3.7022165e-40
0.47232005 0.11286 0.94500011 4.6242289e-40
0.46920574 0.13367429 0.94200003 6.4573515e-40
0.47494462 0.13514628 0.94306672 3.7021745e-40
-0.51011431 0.1435543 0.94800007 2.3234019e-38
-0.50108576 0.14806858 0.94800007 1.90042e-38
-0.49478391 0.14628667 0.94699997 1.7799188e-38
-0.48844576 0.14536001 0.94800007 1.5679051e-38
-0.50289154 0.1564721 0.94800007 2.2128399e-38
-0.4948599 0.15477893 0.94487488 1.9169547e-38
-0.48894289 0.15789714 0.94200003 1.5401063e-38
-0.32141715 0.15709716 0.94800001 2.341769e-38
-0.31519932 0.15771107 0.94762504 2.341769e-38
-0.30968001 0.15980573 0.94800007 2.341769e-38
-0.5023756 0.16393308 0.94800007 1.613933e-38
-0.49521598 0.16452791 0.945409 1.7795605e-38
-0.32103023 0.16522287 0.94800007 2.341769e-38
-0.31466094 0.1649912 0.94667989 2.341769e-38
-0.30816665 0.16656795 0.9476667 2.341769e-38
-0.49462479 0.17028002 0.9460001 2.2774842e-38
-0.31371108 0.17407131 0.94403833 2.341769e-38
-0.30502424 0.17461555 0.94525713 2.341769e-38
-0.29694122 0.17623974 0.94714284 2.341769e-38
-0.31128165 0.18425797 0.94114286 2.341769e-38
-0.30503693 0.1848163 0.94202775 2.341769e-38
-0.29526883 0.18548819 0.94438219 2.341769e-38
-0.2871086 0.1877943 0.94800001 2.341769e-38
-0.46136004 0.19592001 0.94800007 2.0097612e-38
-0.45955431 0.19862857 0.94800007 1.4946566e-38
-0.31090432 0.19409573 0.94350004 2.341769e-38
-0.30491751 0.19511193 0.94165611 2.341769e-38
-0.29527748 0.19497754 0.94199991 2.341769e-38
-0.28565744 0.19466473 0.94568568 2.341769e-38
-0.27623448 0.19731192 0.94650006 2.341769e-38
-0.26905143 0.19953144 0.94800007 2.341769e-38
-0.45846766 0.20172668 0.94700003 1.2726342e-38
-0.30408257 0.2020254 0.94000006 2.341769e-38
-0.29478827 0.20396943 0.9406209 2.341769e-38
-0.28535691 0.20459515 0.94222218 2.341769e-38
-0.27520236 0.20505175 0.9443332 2.341769e-38
-0.26657617 0.20687744 0.94699997 2.3141097e-38
-0.25912002 0.20856002 0.94800007 1.4359342e-38
-0.45861351 0.21715881 0.94500017 1.862645e-38
-0.29095241 0.21038097 0.94000006 2.341769e-38
-0.2839469 0.21431275 0.94096303 2.341769e-38
-0.27454078 0.21532573 0.94205552 2.341769e-38
-0.26474661 0.21530995 0.94525701 2.3416961e-38
-0.25722861 0.21498454 0.94729412 1.3534419e-38
-0.45810002 0.22050001 0.94500005 1.604788e-38
-0.28200004 0.22112384 0.94000006 2.341769e-38
-0.2734594 0.22438544 0.94116682 2.341769e-38
-0.2639071 0.22478741 0.94293731 2.341769e-38
-0.25471094 0.22571008 0.94627261 1.7135794e-38
-0.24862383 0.22818002 0.94700003 1.446752e-38
-0.27215239 0.23007621 0.94000006 2.341769e-38
-0.26417404 0.23385076 0.94051862 2.341769e-38
-0.25482997 0.23508975 0.94216675 2.1660197e-38
-0.2456906 0.23524092 0.94589996 1.5479549e-38
-0.51673532 0.24768382 0.94800013 2.3230778e-38
-0.26051429 0.24081907 0.94000006 2.341769e-38
-0.25376239 0.24480203 0.94103718 2.3049628e-38
-0.244533 0.24431483 0.94345433 1.5382279e-38
-0.23762749 0.2454206 0.94440007 2.1377905e-38
-0.49371243 0.25370288 0.94800007 2.341769e-38
-0.48490953 0.25490999 0.94631988 2.341769e-38
-0.47941718 0.25641143 0.94800007 2.341769e-38
-0.25177488 0.25267085 0.94080013 2.341769e-38
-0.24504368 0.25467861 0.9411875 1.6584051e-38
-0.23591386 0.25522855 0.94321859 1.9351046e-38
-0.48302859 0.26092574 0.94800007 2.341769e-38
-0.47941718 0.26092574 0.94800007 2.341769e-38
-0.2414159 0.26111114 0.94000006 9.6833998e-39
-0.2339596 0.26456505 0.94146663 1.9077335e-38
-0.23170392 0.27386147 0.94000024 1.8616376e-38
-0.33119431 0.1058362 0.95800006 2.341769e-38
-0.32478926 0.10745223 0.95750016 2.341769e-38
-0.31750858 0.10857334 0.95800006 2.341769e-38
-0.33150938 0.11554363 0.9568001 2.341769e-38
-0.32423952 0.11475807 0.9563334 2.341769e-38
-0.31735653 0.1154162 0.95800012 2.341769e-38
-0.33177486 0.12450562 0.95733345 2.341769e-38
-0.3247 0.12460477 0.95499998 2.341769e-38
-0.3152236 0.1248783 0.95613796 2.341769e-38
-0.30838481 0.12590858 0.95800012 2.341769e-38
-0.53197122 0.1379289 0.95700002 2.341769e-38
-0.52439827 0.13717982 0.95560008 2.3049261e-38
-0.51479048 0.13511011 0.95461541 1.4013783e-38
-0.50490105 0.13585237 0.95427585 1.8258734e-38
-0.49718314 0.13782714 0.95525002 1.3737255e-38
-0.33098686 0.13476248 0.95740014 2.341769e-38
-0.32445198 0.13450432 0.95426667 2.341769e-38
-0.31482947 0.13466643 0.9554168 2.341769e-38
-0.3049348 0.13551554 0.95675868 2.341769e-38
-0.2974323 0.13848914 0.95757157 2.341769e-38
-0.54104191 0.14506857 0.95800012 2.009724e-38
-0.53466415 0.14511625 0.95504546 2.1206451e-38
-0.52496141 0.14506803 0.95199984 2.3233659e-38
-0.51510251 0.14483893 0.95031041 2.2865239e-38
-0.50575787 0.14443496 0.95084393 1.99186e-38
-0.49514499 0.14222892 0.95121431 1.4848564e-38
-0.4892067 0.14431144 0.95300007 1.3743682e-38
-0.47141719 0.14711668 0.95650005 1.3745851e-38
-0.46687227 0.14699738 0.9541539 1.7059849e-38
-0.33015716 0.14097621 0.95500004 2.341769e-38
-0.32382292 0.14475168 0.95281482 2.341769e-38
-0.31502244 0.14531982 0.95270932 2.341769e-38
-0.3053036 0.14501445 0.95341158 2.341769e-38
-0.29480749 0.14467429 0.95539999 2.341769e-38
-0.28691432 0.14561589 0.95760018 2.3141463e-38
-0.54178053 0.15575917 0.95644456 1.9921823e-38
-0.53451037 0.15519226 0.95423073 2.0832633e-38
-0.5250293 0.15507454 0.95269561 2.065437e-38
-0.51480955 0.15471427 0.95000011 1.6965832e-38
-0.50705451 0.15355104 0.94999993 2.0836948e-38
-0.48264956 0.15966669 0.95800006 1.9281147e-38
-0.47435999 0.15558958 0.9553889 2.2220942e-38
-0.46503845 0.15413931 0.95227993 1.7522266e-38
-0.45166954 0.15843907 0.95500004 2.2498976e-38
-0.32263812 0.15181907 0.94999999 2.341769e-38
-0.3143492 0.15338799 0.95063162 2.341769e-38
-0.30485147 0.1549226 0.95337474 2.341769e-38
-0.29478705 0.15467332 0.95533341 2.341769e-38
-0.2848458 0.15519139 0.95654839 2.2957429e-38
-0.27621379 0.15803733 0.95718187 1.5009494e-38
-0.54262823 0.16454723 0.95528579 2.3233659e-38
-0.53441823 0.16486855 0.95329624 2.341769e-38
-0.52499765 0.16518113 0.95312881 2.341769e-38
-0.51470858 0.164463 0.95055574 1.7878761e-38
-0.5070287 0.16530004 0.94999999 1.7893905e-38
-0.48423448 0.165526 0.95672226 1.9178895e-38
-0.47614002 0.16403349 0.95450002 2.1204664e-38
-0.45308843 0.16222136 0.95800012 2.0382096e-38
-0.44676256 0.16331622 0.95800006 1.5130593e-38
-0.32300001 0.16557144 0.95000005 2.341769e-38
-0.30432412 0.16412239 0.95140016 2.341769e-38
-0.29448038 0.16522868 0.952838 2.341769e-38
-0.2848675 0.16482003 0.95492309 2.341769e-38
-0.27490324 0.16476098 0.95580006 1.6029808e-38
-0.26641524 0.16787811 0.95800006 1.7224727e-38
-0.54317528 0.17559627 0.95607704 2.2310633e-38
-0.53401279 0.175873 0.95544827 2.3233659e-38
-0.5258199 0.17446791 0.95671439 2.2404268e-38
-0.51437473 0.17511654 0.9531303 1.1896563e-38
-0.50486612 0.17527933 0.95248133 1.6230087e-38
-0.49538121 0.17634222 0.95441675 2.074548e-38
-0.4846769 0.17458959 0.95480007 2.0006128e-38
-0.47821814 0.17460892 0.9544546 1.5859883e-38
-0.46987623 0.17791429 0.95800006 2.1486626e-38
-0.44819003 0.17945763 0.95650005 1.3378506e-38
-0.29291826 0.17389561 0.9503749 2.341769e-38
-0.28501451 0.17448388 0.95351422 2.341769e-38
-0.27467388 0.17441322 0.95454288 1.9540772e-38
-0.26491517 0.17503405 0.95648491 1.6024037e-38
-0.25854069 0.1789432 0.95700014 2.0168893e-38
-0.5440079 0.18359847 0.95563638 2.2679772e-38
-0.53620863 0.18258397 0.95616674 2.3049989e-38
-0.52096957 0.18521336 0.95800006 1.3900687e-38
-0.51436836 0.1851563 0.95735723 1.2079138e-38
-0.50437546 0.18495828 0.95666671 2.1483025e-38
-0.49486902 0.18472347 0.95614821 1.807286e-38
-0.48578426 0.18340948 0.95631254 1.7700192e-38
-0.47624207 0.18409997 0.95694458 2.2681211e-38
-0.46459493 0.1894159 0.95466679 2.0748354e-38
-0.45406681 0.18727057 0.95608342 1.9184279e-38
-0.44633421 0.18605234 0.95389998 1.5663599e-38
-0.29120412 0.18237418 0.94999999 2.341769e-38
-0.28433555 0.18356766 0.95057714 2.341769e-38
-0.27521205 0.185074 0.95149994 2.314146e-38
-0.26522377 0.18529318 0.95372224 1.4734747e-38
-0.25774017 0.1855316 0.95628577 2.0079937e-38
-0.5227353 0.1952114 0.95633346 1.4378247e-38
-0.51423818 0.19440542 0.95403212 1.5582897e-38
-0.50528491 0.19438556 0.95526648 2.0744762e-38
-0.49816003 0.19160002 0.95800006 2.341769e-38
-0.4808248 0.19524954 0.95800012 1.7249272e-38
-0.47446716 0.19461326 0.95523083 1.8996655e-38
-0.46423018 0.1948351 0.95251858 2.0655443e-38
-0.45523536 0.19511296 0.95365721 1.5027253e-38
-0.44704184 0.19432423 0.95600009 1.5288309e-38
-0.28138098 0.19090478 0.95000005 2.341769e-38
-0.27427608 0.19328788 0.95015001 2.341769e-38
-0.2648522 0.19544411 0.9520908 1.6767359e-38
-0.25520059 0.19491193 0.95448381 1.9253421e-38
-0.54482085 0.20499039 0.95662504 1.9080839e-38
-0.53739244 0.20802286 0.95800006 1.8899623e-38
-0.52283186 0.20260477 0.95740002 9.1112342e-39
-0.51379579 0.20377745 0.95661908 1.7886001e-38
-0.50475436 0.20581166 0.95666677 1.4851132e-38
-0.4808248 0.20467749 0.95800006 1.7514011e-38
-0.4755196 0.20340644 0.95558345 1.844744e-38
-0.46439257 0.20382981 0.95331252 1.76159e-38
-0.45771131 0.20369987 0.95483345 1.5489994e-38
-0.26365617 0.20320469 0.95093745 1.7231596e-38
-0.25476384 0.20508379 0.9530524 1.6853817e-38
-0.54560387 0.21076001 0.95800006 1.9824436e-38
-0.5355677 0.21304096 0.95800006 1.8989283e-38
-0.51173127 0.21579495 0.9577859 1.4663146e-38
-0.50480521 0.21547419 0.95742327 1.751794e-38
-0.49680954 0.21533549 0.95731825 1.9639502e-38
-0.48595604 0.21765418 0.95533341 2.2406062e-38
-0.47717357 0.21536973 0.95580006 2.1390104e-38
-0.46259323 0.21436296 0.95511121 1.7430789e-38
-0.45543835 0.21587721 0.95334613 1.6966207e-38
-0.44790038 0.21745847 0.95536375 1.6296309e-38
-0.2527332 0.21504605 0.95115006 1.5844713e-38
-0.49457124 0.22635968 0.95635301 1.5308157e-38
-0.48723757 0.22577459 0.95371437 1.9365075e-38
-0.45430607 0.22480381 0.95395631 1.5203283e-38
-0.44599584 0.22466341 0.95333326 1.3628386e-38
-0.25242859 0.22166668 0.95000005 1.3174267e-38
-0.49299765 0.2325331 0.95375001 1.6130719e-38
-0.4892067 0.23144287 0.95300007 1.8913805e-38
-0.45453244 0.23486567 0.95139289 1.6860223e-38
-0.52463394 0.24455895 0.95435727 1.3635566e-38
-0.51392573 0.2456364 0.95392305 2.1392278e-38
-0.49527746 0.24604729 0.9520871 2.1299724e-38
-0.51415581 0.25218901 0.95288891 2.341769e-38
-0.49542448 0.25289851 0.95100003 2.341769e-38
-0.33553788 0.068946436 0.96525002 1.5471935e-38
-0.32576859 0.069214292 0.96900004 1.5287907e-38
-0.343557 0.076373518 0.9634707 1.5469773e-38
-0.33476707 0.075379215 0.96432418 1.5285387e-38
-0.32540873 0.07507813 0.9677307 1.6577913e-38
-0.3128486 0.077981435 0.96900004 2.2864139e-38
-0.34507307 0.085074142 0.96464998 2.0738249e-38
-0.33512914 0.085069671 0.96189666 2.2955263e-38
-0.32503805 0.084619157 0.96551341 2.3233292e-38
-0.31505737 0.085175291 0.96774179 2.3325494e-38
-0.30714369 0.087000273 0.96899998 2.3324767e-38
-0.3429468 0.095399916 0.9641 2.341769e-38
-0.3345024 0.095310695 0.96226686 2.341769e-38
-0.324891 0.095447145 0.96366638 2.341769e-38
-0.31454664 0.095477238 0.96531403 2.341733e-38
-0.30533448 0.095258147 0.96782601 2.2864869e-38
-0.29752919 0.09726914 0.96899998 1.3438204e-38
-0.34373268 0.10373738 0.96675003 2.341769e-38
-0.33556631 0.10489763 0.96238899 2.341769e-38
-0.32480219 0.10379544 0.96268433 2.341769e-38
-0.31361189 0.10524745 0.96312881 2.341769e-38
-0.30455118 0.10489038 0.9660998 2.341769e-38
-0.29576176 0.10536118 0.96724117 1.5291134e-38
-0.2852906 0.10859287 0.96630001 1.6023657e-38
-0.2792443 0.10931001 0.96450007 1.7866131e-38
-0.47219527 0.11843334 0.96900004 1.7890647e-38
-0.46542594 0.11607641 0.96852624 1.5759012e-38
-0.4549686 0.11904858 0.96900004 1.4928529e-38
-0.3405343 0.11351144 0.96900004 2.341769e-38
-0.33707446 0.11485573 0.96350002 2.341769e-38
-0.31318137 0.11480669 0.96261543 2.341769e-38
-0.30476061 0.11481153 0.96443981 2.341769e-38
-0.29552257 0.11512317 0.96533316 1.9447163e-38
-0.2852585 0.11502419 0.96619982 1.4546382e-38
-0.54096001 0.12972 0.96600002 2.341769e-38
-0.53636003 0.12972 0.96600002 2.3417677e-38
-0.52197957 0.12688813 0.96550006 1.7708808e-38
-0.51623714 0.12734979 0.96568412 1.263087e-38
-0.50111145 0.12550858 0.96900004 1.1899776e-38
-0.49384314 0.12694626 0.96463633 1.6142567e-38
-0.48495698 0.1269805 0.96494114 1.641807e-38
-0.47179881 0.12462572 0.96728581 1.7058068e-38
-0.46457204 0.12471276 0.96619987 1.7241693e-38
-0.45522404 0.12543005 0.96638685 1.538986e-38
-0.44609994 0.12597607 0.96612489 2.0282702e-38
-0.33735034 0.12501001 0.96516675 2.341769e-38
-0.31109113 0.12119969 0.96166676 2.341769e-38
-0.30455175 0.12432749 0.9620769 2.341769e-38
-0.29585406 0.12495884 0.96474975 2.295526e-38
-0.28545588 0.12504372 0.9664284 1.288939e-38
-0.54258245 0.13529968 0.96316683 2.341769e-38
-0.53574848 0.13422456 0.96295464 2.3325494e-38
-0.52655494 0.13253187 0.96336365 1.945763e-38
-0.51372123 0.13072406 0.96324998 1.1529183e-38
-0.5043413 0.13257924 0.96490926 1.7523337e-38
-0.49486265 0.13477388 0.96453553 1.8261612e-38
-0.48575768 0.13278668 0.96599996 1.9733138e-38
-0.47339022 0.136907 0.96766663 1.7154533e-38
-0.46460161 0.13501659 0.96322727 2.0746913e-38
-0.45599177 0.13464636 0.9646666 2.2312427e-38
-0.44669646 0.13352072 0.96574992 2.2771603e-38
-0.33499402 0.13245748 0.96366668 2.341769e-38
-0.303554 0.13148922 0.96100008 2.341769e-38
-0.29485333 0.13446806 0.96292579 2.3417687e-38
-0.55279148 0.14304286 0.96900004 2.3234019e-38
-0.54597884 0.14485823 0.96158838 2.0834039e-38
-0.53907526 0.14003144 0.96100003 2.341769e-38
-0.49501225 0.14206116 0.96359998 1.4575619e-38
-0.4824104 0.14644608 0.96712506 1.4203228e-38
-0.47567293 0.14440535 0.96333349 1.7796681e-38
-0.46499592 0.14444219 0.96262062 1.9364359e-38
-0.45637819 0.14593427 0.96371984 1.9085618e-38
-0.29196098 0.14003144 0.96100008 2.341769e-38
-0.28368157 0.14369297 0.96219045 1.7223997e-38
-0.54622477 0.15155049 0.96150005 1.3727886e-38
-0.48510748 0.15473375 0.96357149 2.0193002e-38
-0.47866958 0.15284477 0.96100008 2.2314934e-38
-0.46262765 0.15257049 0.96700001 1.5864198e-38
-0.4548375 0.15488233 0.96499991 1.9366151e-38
-0.28189337 0.15192953 0.96100003 1.9264872e-38
-0.54578704 0.16870891 0.96100008 2.32333e-38
-0.49467441 0.16519275 0.96365005 2.1480887e-38
-0.4887372 0.16291238 0.96100003 2.341697e-38
-0.47595859 0.16949525 0.96200001 1.7888892e-38
-0.45488495 0.16638489 0.96166688 1.6049646e-38
-0.44583765 0.16495496 0.96325016 1.8716817e-38
-0.54584801 0.17517661 0.96100008 2.2220231e-38
-0.52626193 0.17664097 0.96100008 2.341769e-38
-0.49537325 0.17305918 0.96144456 2.2222394e-38
-0.48050004 0.17481048 0.96100003 1.2519739e-38
-0.47537088 0.1746757 0.96188003 1.9271091e-38
-0.55120289 0.18984859 0.96300006 1.4198253e-38
-0.5448283 0.18757403 0.96146166 1.9276839e-38
-0.53444529 0.18676244 0.9610002 2.2866317e-38
-0.52654356 0.18515974 0.96100032 2.1384709e-38
-0.51710957 0.18762383 0.96100003 9.6860272e-39
-0.49148288 0.1894543 0.96100003 1.7632038e-38
-0.48487148 0.1881797 0.96150017 1.7801004e-38
-0.47321162 0.18472895 0.96127796 2.2404984e-38
-0.46558961 0.18439054 0.96234375 1.9459065e-38
-0.4564065 0.18305376 0.96215397 1.5857004e-38
-0.55085945 0.19522516 0.96240008 1.6780941e-38
-0.54487818 0.19527364 0.96192318 1.447676e-38
-0.53540099 0.19484469 0.96125025 1.6321526e-38
-0.52882463 0.19421352 0.96100008 2.167245e-38
-0.51710957 0.19128478 0.96100003 1.4566626e-38
-0.50269455 0.19723383 0.96100003 1.6230474e-38
-0.46677145 0.19128478 0.96100003 2.2036559e-38
-0.55005813 0.20501336 0.96100008 1.8807564e-38
-0.54342139 0.20438583 0.96118212 1.8898919e-38
-0.32247907 0.068572387 0.97300005 1.547265e-38
-0.3151738 0.068772033 0.97463644 1.5103873e-38
-0.30544668 0.068900868 0.97645468 1.6487177e-38
-0.32196346 0.073872 0.97200006 1.6115882e-38
-0.31510839 0.074536055 0.97269255 1.7874034e-38
-0.3046954 0.07507626 0.97489673 1.6577561e-38
-0.32122287 0.080537148 0.97200006 2.341769e-38
-0.31085488 0.082758866 0.97200006 2.341769e-38
-0.30389005 0.084586322 0.97309101 1.5197874e-38
-0.34899431 0.091645718 0.97200006 2.341769e-38
-0.30224574 0.092108577 0.97200006 1.6116621e-38
-0.49548113 0.10605779 0.97400022 1.7232335e-38
-0.47576946 0.10675728 0.97475004 1.8798224e-38
-0.47588909 0.11393815 0.97328025 1.6682059e-38
-0.46320084 0.11378928 0.97221053 1.7233767e-38
-0.45496064 0.11483157 0.97320706 1.704686e-38
-0.52644753 0.12377454 0.97288233 2.1667783e-38
-0.46193147 0.12312001 0.97200006 1.1598755e-38
-0.45082289 0.12126858 0.97200006 1.4640014e-38
-0.53487575 0.13105573 0.97250009 2.1760695e-38
-0.5100686 0.13052572 0.97200006 1.585808e-38
-0.5138945 0.38232845 0.97516674 1.8515441e-38
-0.50413156 0.38398144 0.97340012 1.7689971e-38
-0.5478667 0.36213338 0.98000002 1.8420391e-38
-0.51480007 0.38653341 0.98000008 1.8884226e-38
-0.51209629 0.39039147 0.98300004 1.943704e-38
