# .PCD v0.7 - Point Cloud Data file format
VERSION 0.7
FIELDS x y z rgb
SIZE 4 4 4 4
TYPE F F F F
COUNT 1 1 1 1
WIDTH 743
HEIGHT 1
VIEWPOINT 0 0 0 1 0 0 0
POINTS 743
DATA ascii
-0.14579354 0.19472726 0.52860004 2.341769e-38
-0.17582953 0.20404287 0.52900004 2.341769e-38
-0.16303715 0.20763522 0.52900022 2.341769e-38
-0.15745533 0.20596921 0.5290001 2.2402463e-38
-0.18936162 0.21955144 0.52833337 2.341769e-38
-0.171693 0.21581613 0.52900016 2.341769e-38
-0.1650504 0.21492995 0.52887595 2.2956356e-38
-0.15815221 0.21453248 0.528853 1.8801821e-38
-0.19161557 0.22050065 0.52900004 2.341769e-38
-0.1888089 0.22103302 0.52866673 2.341769e-38
-0.17252229 0.22254066 0.52890015 2.341769e-38
-0.16543216 0.22204657 0.52834874 2.1754943e-38
-0.15927581 0.22146028 0.52900004 1.9546216e-38
-0.17556001 0.15964667 0.53900003 2.1193884e-38
-0.19192718 0.16704509 0.53564519 2.2574609e-38
-0.18500036 0.16539639 0.53587753 2.0091833e-38
-0.17523856 0.16527343 0.53584838 2.1109209e-38
-0.16575776 0.16582859 0.53502482 2.3325494e-38
-0.15865715 0.16847327 0.53472733 2.341769e-38
-0.20175178 0.17749272 0.53360003 2.332585e-38
-0.19469097 0.17543155 0.53375036 2.3325494e-38
-0.18517883 0.17518556 0.53430319 2.341769e-38
-0.17476939 0.17494376 0.53349566 2.3325494e-38
-0.1650416 0.17479639 0.53335214 2.2680128e-38
-0.15538788 0.17525782 0.5333516 2.2587575e-38
-0.14956954 0.1781562 0.53600001 2.341769e-38
-0.20350021 0.18539508 0.53293967 2.341769e-38
-0.19494663 0.18496117 0.53270262 2.3325494e-38
-0.18476672 0.18486032 0.53312171 2.341769e-38
-0.17473075 0.18456794 0.53236318 2.341769e-38
-0.16511434 0.18469548 0.53227419 2.3417689e-38
-0.15475467 0.18480149 0.53216362 2.2034764e-38
-0.14856265 0.18555312 0.53452778 2.3325854e-38
-0.2121314 0.1967451 0.53475869 2.341769e-38
-0.20456406 0.1947325 0.53241521 2.3325494e-38
-0.19457799 0.1945781 0.53205037 2.3325854e-38
-0.18479247 0.19479425 0.53263676 2.341769e-38
-0.17509978 0.19482204 0.53240901 2.341769e-38
-0.16494256 0.19478992 0.53125447 2.3325494e-38
-0.15484272 0.19471221 0.53096193 2.1019184e-38
-0.14772037 0.19332094 0.53288633 2.2681927e-38
-0.21348837 0.20516872 0.53450954 2.341769e-38
-0.20460528 0.20488653 0.53211021 2.341769e-38
-0.19460313 0.20485623 0.53195035 2.3325854e-38
-0.18488598 0.20486823 0.53202134 2.341769e-38
-0.17487603 0.20471236 0.53154999 2.341769e-38
-0.16540243 0.20395084 0.5304721 2.341769e-38
-0.1536257 0.20460244 0.53134322 2.018763e-38
-0.14874732 0.20538293 0.5344376 2.3416971e-38
-0.22232929 0.21620812 0.53555179 2.3417689e-38
-0.21478769 0.21494743 0.53372854 2.341769e-38
-0.20473471 0.21491985 0.53200042 2.341769e-38
-0.19489743 0.21504621 0.53188312 2.3325494e-38
-0.18525127 0.21491569 0.53154993 2.341769e-38
-0.17611174 0.21460372 0.53075325 2.341769e-38
-0.16522542 0.21401906 0.53000003 2.341769e-38
-0.15437992 0.21205132 0.53281468 2.1664911e-38
-0.22269642 0.22322898 0.53477508 2.341769e-38
-0.21503417 0.22324392 0.53332764 2.341769e-38
-0.20469335 0.2229334 0.53199977 2.3325854e-38
-0.19536991 0.22303227 0.53125 2.341769e-38
-0.1848647 0.22294946 0.53159249 2.341769e-38
-0.17707983 0.22234967 0.5304231 2.341769e-38
-0.16101906 0.22461908 0.53000009 1.9547277e-38
-0.17862239 0.16163477 0.54050004 1.2892683e-38
-0.1609588 0.16791961 0.54442859 2.341769e-38
-0.15756913 0.16874838 0.54444444 2.341769e-38
-0.15382648 0.1738604 0.54621571 2.341769e-38
-0.14905947 0.17775743 0.54642862 2.341769e-38
-0.15018827 0.18136859 0.54566669 2.341769e-38
-0.14800937 0.1856208 0.54468417 2.341769e-38
-0.14686255 0.19282192 0.54233336 2.341769e-38
0.3285867 0.29626667 0.80800003 1.9257774e-38
0.35267478 0.25447828 0.81642872 1.2332584e-38
0.3516143 0.26002383 0.81500006 1.187234e-38
0.33696002 0.27846003 0.81900007 1.8435931e-38
0.34629726 0.27649251 0.81741685 2.2401031e-38
0.32967609 0.28703609 0.81614292 1.4381135e-38
0.33278862 0.28375894 0.8148334 1.79764e-38
0.34628525 0.28084621 0.81800008 2.341769e-38
0.32922116 0.29390198 0.81581831 1.6688551e-38
0.3323473 0.29538456 0.8148182 1.8707842e-38
0.33640024 0.30143881 0.81575 1.8988019e-38
0.34082383 0.3008486 0.81766671 2.2680493e-38
0.033949528 0.22659335 0.82900006 9.1476764e-41
0.33702266 0.27545214 0.82538706 1.2625869e-38
0.34274483 0.27608854 0.82336366 1.8438811e-38
0.33352995 0.28199887 0.82480013 1.0050541e-38
0.34278741 0.28174311 0.82175004 2.1203578e-38
0.021574287 0.19896287 0.83900005 9.1476764e-41
0.03862064 0.19843018 0.83900011 9.1476764e-41
0.044080794 0.19803068 0.83900011 9.1476764e-41
0.017711865 0.20601876 0.8384546 9.1476764e-41
0.025330722 0.20529175 0.83725649 9.1476764e-41
0.035058685 0.20476562 0.83661908 9.1476764e-41
0.044684134 0.20506017 0.8378098 9.1476764e-41
0.05191768 0.20607099 0.83866662 9.1476764e-41
0.0079016937 0.21742973 0.83900011 9.1476764e-41
0.015199601 0.21511629 0.83815587 9.1476764e-41
0.025407623 0.21518831 0.83376187 9.1476764e-41
0.034897186 0.2149294 0.83276194 9.1476764e-41
0.044342149 0.215101 0.83434993 9.1476764e-41
0.05483783 0.21496306 0.83660001 9.1476764e-41
0.062954605 0.21734351 0.83850002 9.1476764e-41
0.0071856091 0.22518171 0.83844435 9.1476764e-41
0.015324553 0.22474574 0.83544457 9.1476764e-41
0.025348417 0.22499098 0.83183324 9.1476764e-41
0.034845471 0.22469786 0.83099979 9.1476764e-41
0.045271296 0.22475784 0.83190912 9.1476764e-41
0.055510342 0.2247037 0.83371437 9.1476764e-41
0.064749405 0.22547063 0.83793342 9.1476764e-41
0.00660762 0.23513429 0.8387273 9.1476764e-41
0.015029909 0.23525777 0.83660007 9.1476764e-41
0.025400745 0.23498562 0.83355552 9.1476764e-41
0.035009731 0.23470432 0.83152616 9.1476764e-41
0.04497781 0.2350205 0.83159578 9.1476764e-41
0.055645347 0.23528208 0.83461118 9.1476764e-41
0.065238655 0.23455179 0.8383531 9.1476764e-41
0.0071914294 0.24284905 0.83900005 9.1476764e-41
0.015400353 0.24501374 0.83742112 9.1476764e-41
0.025589574 0.24500956 0.83426297 9.1476764e-41
0.034617163 0.2450964 0.83243591 9.1476764e-41
0.044720124 0.244808 0.83287501 9.1476764e-41
0.054870915 0.24516658 0.83689189 9.1476764e-41
0.064403243 0.24253762 0.83900005 9.1476764e-41
0.072713338 0.24370953 0.83900005 9.1476764e-41
0.017306603 0.25289848 0.83873332 9.1476764e-41
0.025413601 0.25418779 0.83707988 9.1476764e-41
0.035426635 0.25551569 0.83686197 9.1476764e-41
0.04450541 0.25440723 0.83687097 9.1476764e-41
0.054350078 0.25265074 0.83861905 9.1476764e-41
0.061526671 0.25010192 0.83900005 9.1476764e-41
0.34532458 0.25707081 0.83566678 1.2700659e-38
0.35078192 0.25969049 0.83900005 1.2240038e-38
0.33896813 0.26934478 0.8355 1.4008045e-38
0.34526289 0.26575276 0.83662182 1.3447971e-38
0.33587816 0.27489901 0.83436853 1.5488937e-38
0.34348002 0.27146003 0.83100003 8.7619353e-39
0.32922003 0.28856575 0.83700001 8.0334213e-39
0.33282739 0.28399017 0.8350001 1.3091889e-38
0.01857524 0.18979049 0.84800005 9.1476764e-41
0.025036193 0.1897905 0.84800011 9.1476764e-41
0.03601981 0.18979049 0.84800005 9.1476764e-41
0.042803816 0.18979049 0.84800005 9.1476764e-41
0.0076723811 0.19907811 0.84800005 9.1476764e-41
0.015305348 0.19629613 0.84596765 9.1476764e-41
0.024965992 0.19508508 0.84341657 9.1476764e-41
0.035051502 0.19472407 0.8428461 9.1476764e-41
0.045263339 0.1936827 0.84363341 9.1476764e-41
0.053926528 0.19711894 0.845074 9.1476764e-41
0.062186673 0.1990781 0.84800005 9.1476764e-41
-0.002745905 0.20885031 0.84800005 9.1476764e-41
0.0055386154 0.20542715 0.84609073 9.1476764e-41
0.012933906 0.20379354 0.84259993 9.1476764e-41
0.028033337 0.20103906 0.84100002 9.1476764e-41
0.056488298 0.20421275 0.84214294 9.1476764e-41
0.064127058 0.20512252 0.84515381 9.1476764e-41
0.071114838 0.2073475 0.84714299 9.1476764e-41
-0.0034236456 0.21542092 0.84717226 9.1476764e-41
0.0040121572 0.2142147 0.84335285 9.1476764e-41
0.010412382 0.21145144 0.84100002 9.1476764e-41
0.058469526 0.21065049 0.84100002 9.1476764e-41
0.065676868 0.21396628 0.84285188 9.1476764e-41
0.072675593 0.21491408 0.84611094 9.1476764e-41
-0.0036737572 0.22518004 0.84611088 9.1476764e-41
0.0024896744 0.2249262 0.84236848 9.1476764e-41
0.069102861 0.22293048 0.84125006 9.1476764e-41
0.075045787 0.22526316 0.84557557 9.1476764e-41
-0.0039787949 0.23463893 0.84586656 9.1476764e-41
0.0019773333 0.23437038 0.84219998 9.1476764e-41
0.069682859 0.23868382 0.84100002 9.1476764e-41
0.075891957 0.23458391 0.84563875 9.1476764e-41
-0.0023053063 0.24383743 0.84657139 9.1476764e-41
0.0034737417 0.24574058 0.84257144 9.1476764e-41
0.010412382 0.2490962 0.84100002 9.1476764e-41
0.066510431 0.24661493 0.84138083 9.1476764e-41
0.073617093 0.24366944 0.84352654 9.1476764e-41
0.0056327246 0.25457194 0.84555995 9.1476764e-41
0.013208486 0.25623292 0.84290916 9.1476764e-41
0.02164286 0.25891274 0.8416667 9.1476764e-41
0.055420741 0.25761709 0.84146166 9.1476764e-41
0.064421907 0.25496241 0.84312898 9.1476764e-41
0.070536673 0.25560018 0.84483337 9.1476764e-41
0.3484143 0.25870764 0.84100002 1.2700659e-38
0.3537294 0.25805965 0.84412503 1.2609192e-38
0.0088838097 0.26166859 0.84800005 9.1476764e-41
0.01501447 0.26398152 0.8469047 9.1476764e-41
0.023467122 0.26390406 0.84419054 9.1476764e-41
0.035961624 0.26567563 0.84479994 9.1476764e-41
0.045094937 0.26423308 0.84293103 9.1476764e-41
0.05470559 0.26466638 0.84466666 9.1476764e-41
0.064348176 0.26245853 0.84757143 9.1476764e-41
0.33880287 0.26831907 0.84100002 1.5757922e-38
0.34168631 0.26735792 0.84100002 1.5112174e-38
0.03715048 0.27109084 0.84800005 9.1476764e-41
0.045226675 0.27119848 0.84800005 9.1476764e-41
0.052091431 0.27095622 0.84800005 9.1476764e-41
0.33431754 0.2782509 0.84100002 1.7056629e-38
0.33234301 0.28611639 0.84369236 1.5311753e-38
0.033502862 0.1789543 0.85800004 9.1476764e-41
0.0089780958 0.18935525 0.85700005 9.1476764e-41
0.015542098 0.18687072 0.85535991 9.1476764e-41
0.024726478 0.18512726 0.85409993 9.1476764e-41
0.034972444 0.18461953 0.85400021 9.1476764e-41
0.045288846 0.18521689 0.85502577 9.1476764e-41
0.054931678 0.18749437 0.85658336 9.1476764e-41
0.062030479 0.18935525 0.85699999 9.1476764e-41
-0.0014689526 0.19861335 0.85680008 9.1476764e-41
0.0050559803 0.19527115 0.85355562 9.1476764e-41
0.012904617 0.19209936 0.85107702 9.1476764e-41
0.033190478 0.1902381 0.85000002 9.1476764e-41
0.047799371 0.19038731 0.8506667 9.1476764e-41
0.056051522 0.19280641 0.85170013 9.1476764e-41
0.065109558 0.19553599 0.85367578 9.1476764e-41
0.072231971 0.19802287 0.85644448 9.1476764e-41
-0.0041244007 0.20504384 0.85379326 9.1476764e-41
0.0013498415 0.20253843 0.8506667 9.1476764e-41
0.068809532 0.20157143 0.85000002 9.1476764e-41
0.075199671 0.20473804 0.85329413 9.1476764e-41
0.080834292 0.20820826 0.85733336 9.1476764e-41
-0.012394953 0.2153279 0.85610002 9.1476764e-41
-0.0083912695 0.2143389 0.85250014 9.1476764e-41
0.077926204 0.21473128 0.85083342 9.1476764e-41
0.082322292 0.21557696 0.85580009 9.1476764e-41
-0.012229313 0.22497708 0.8558889 9.1476764e-41
-0.0083767194 0.22507092 0.85111123 9.1476764e-41
0.078523815 0.22180954 0.85000002 9.1476764e-41
0.084041633 0.22498769 0.8542223 9.1476764e-41
-0.012040211 0.23478709 0.85533333 9.1476764e-41
-0.0086944234 0.23589337 0.85200006 9.1476764e-41
0.084327042 0.23233822 0.85323095 9.1476764e-41
-0.012130923 0.24547087 0.85666668 9.1476764e-41
-0.0067639151 0.24574105 0.85188895 9.1476764e-41
0.076904766 0.24042858 0.85000002 9.1476764e-41
-0.010610477 0.25138766 0.85700005 9.1476764e-41
-0.0045599379 0.25471652 0.85393339 9.1476764e-41
0.0015042179 0.25687784 0.8508572 9.1476764e-41
-0.002718413 0.26206636 0.85633343 9.1476764e-41
0.0051798499 0.26504412 0.8546316 9.1476764e-41
0.013774922 0.26853749 0.85100001 9.1476764e-41
0.024771431 0.26957145 0.85000002 9.1476764e-41
0.065254614 0.2673344 0.85146683 9.1476764e-41
0.07132858 0.26560766 0.85349995 9.1476764e-41
0.0073542865 0.27101907 0.85800004 9.1476764e-41
0.015755489 0.27482074 0.85652632 9.1476764e-41
0.024831256 0.27493042 0.85340756 9.1476764e-41
0.034530342 0.27568004 0.85171431 9.1476764e-41
0.045445051 0.27640826 0.85210007 9.1476764e-41
0.055348821 0.27511978 0.85191321 9.1476764e-41
0.064608164 0.27350235 0.8545714 9.1476764e-41
0.071470484 0.2714718 0.85600007 9.1476764e-41
0.025728894 0.28234923 0.85766661 9.1476764e-41
0.034654658 0.28180724 0.85538471 9.1476764e-41
0.045107305 0.28220859 0.85600007 9.1476764e-41
0.052175242 0.28125715 0.85600007 9.1476764e-41
0.0091038104 0.17959334 0.86900002 9.1476764e-41
0.015637355 0.17922215 0.86455566 9.1476764e-41
0.025017429 0.17824563 0.86410016 9.1476764e-41
0.034679003 0.1773787 0.8639999 9.1476764e-41
0.044464689 0.17784977 0.86458349 9.1476764e-41
0.053726848 0.17849258 0.86618763 9.1476764e-41
0.062828571 0.17938668 0.86800003 9.1476764e-41
-0.0013787303 0.18882763 0.86833334 9.1476764e-41
0.0055052978 0.18599316 0.86487502 9.1476764e-41
0.013296524 0.18289338 0.8619501 9.1476764e-41
0.022114288 0.18100953 0.86000001 9.1476764e-41
0.047504768 0.18100953 0.86000001 9.1476764e-41
0.056201495 0.18276533 0.86178941 9.1476764e-41
0.064168446 0.18519515 0.86453336 9.1476764e-41
0.071342543 0.18813114 0.86766672 9.1476764e-41
-0.010759048 0.19614573 0.86900002 9.1476764e-41
-0.004690507 0.19496416 0.86515629 9.1476764e-41
0.0017571432 0.19188805 0.86157155 9.1476764e-41
0.068340957 0.19158211 0.86040002 9.1476764e-41
0.075652547 0.19434465 0.86341178 9.1476764e-41
0.083031006 0.19569284 0.86699992 9.1476764e-41
-0.012122025 0.20811513 0.8628751 9.1476764e-41
-0.0073976726 0.20284596 0.8631112 9.1476764e-41
0.078963183 0.20136827 0.86066675 9.1476764e-41
0.084819473 0.20472428 0.8651666 9.1476764e-41
0.090415724 0.20766714 0.86700004 9.1476764e-41
-0.015846737 0.21360596 0.86264288 9.1476764e-41
0.087540649 0.21443519 0.86268193 9.1476764e-41
0.092905082 0.21591292 0.86410534 9.1476764e-41
-0.021426907 0.22743666 0.86525011 9.1476764e-41
-0.017231591 0.22480968 0.86150008 9.1476764e-41
0.088765241 0.22324336 0.86100006 9.1476764e-41
0.093594417 0.22495125 0.86204171 9.1476764e-41
-0.022604365 0.23481369 0.86542112 9.1476764e-41
-0.016987523 0.23517679 0.8616001 9.1476764e-41
0.089449212 0.23224288 0.86166668 9.1476764e-41
0.09214811 0.2336698 0.86390001 9.1476764e-41
-0.022851795 0.24440809 0.86714286 9.1476764e-41
-0.016996594 0.24489714 0.86273694 9.1476764e-41
-0.020583335 0.2519424 0.86450005 9.1476764e-41
-0.0152622 0.25491938 0.86407691 9.1476764e-41
-0.0081904763 0.25881904 0.86000001 9.1476764e-41
-0.013813742 0.26318166 0.86757153 9.1476764e-41
-0.0060545024 0.26603305 0.86286366 9.1476764e-41
0.0024571433 0.26837462 0.86000001 9.1476764e-41
-0.0035108277 0.27334842 0.86436832 9.1476764e-41
0.0045666667 0.27486208 0.86114287 9.1476764e-41
0.011739683 0.27692911 0.86000007 9.1476764e-41
0.016872382 0.281261 0.86000007 9.1476764e-41
0.022523813 0.28257143 0.86000001 9.1476764e-41
0.042349845 0.28552321 0.86066675 9.1476764e-41
0.027259812 0.16907774 0.87800008 9.1476764e-41
0.035097621 0.16965002 0.87750006 9.1476764e-41
0.045000002 0.16916668 0.87500012 9.1476764e-41
0.051756673 0.16945669 0.87650001 9.1476764e-41
-0.0041666669 0.17916667 0.87500006 9.1476764e-41
0.0091666672 0.17916667 0.87500006 9.1476764e-41
0.015586811 0.17715025 0.87535012 9.1476764e-41
0.024986008 0.17406982 0.87453848 9.1476764e-41
0.034938022 0.17303222 0.87349999 9.1476764e-41
0.044867542 0.17281947 0.87241668 9.1476764e-41
0.054598399 0.1738957 0.87269235 9.1476764e-41
0.064075246 0.17715372 0.87220019 9.1476764e-41
0.071076192 0.17978096 0.87800002 9.1476764e-41
-0.010870477 0.18814287 0.87800002 9.1476764e-41
-0.0044565517 0.18576548 0.87496561 9.1476764e-41
0.0032594146 0.18201692 0.87269241 9.1476764e-41
0.068248101 0.18275431 0.87125015 9.1476764e-41
0.074809559 0.18612181 0.87426931 9.1476764e-41
0.080648579 0.18873429 0.87300003 9.1476764e-41
-0.011542116 0.19602235 0.87255561 9.1476764e-41
-0.0077160546 0.19145812 0.87242866 9.1476764e-41
0.082216196 0.19100858 0.8720001 9.1476764e-41
-0.012821716 0.2016027 0.87400007 9.1476764e-41
-0.02535167 0.22774452 0.8727501 9.1476764e-41
-0.026479684 0.2340689 0.871889 9.1476764e-41
0.018760003 0.16828001 0.88200009 9.1476764e-41
0.023653338 0.1682743 0.88080007 9.1476764e-41
0.036438953 0.16790201 0.88150007 9.1476764e-41
0.045273334 0.16784634 0.88511765 9.1476764e-41
0.051961906 0.16845715 0.88000005 9.1476764e-41
-0.00083809532 0.1785143 0.88000005 9.1476764e-41
0.0058738631 0.17678031 0.88111115 9.1476764e-41
0.014852479 0.17294544 0.8811 9.1476764e-41
0.022293335 0.17080383 0.88000005 9.1476764e-41
0.054476194 0.17013334 0.88000005 9.1476764e-41
-0.010895239 0.18438096 0.88000005 9.1476764e-41
-0.0060761906 0.18249524 0.88000005 9.1476764e-41
0.0041904766 0.18019049 0.88000005 9.1476764e-41
0.076985046 0.18378232 0.88000011 9.1476764e-41
-0.010895239 0.19192383 0.88000005 9.1476764e-41
-0.017356573 0.20333257 0.88440007 9.1476764e-41
0.4254972 0.36567265 0.90513355 1.5119795e-38
0.42502815 0.37555116 0.90394133 2.1201789e-38
0.43423313 0.37482944 0.90393341 2.277125e-38
0.42484006 0.38184005 0.903 2.3141462e-38
0.45698786 0.31605488 0.91120005 1.2518767e-38
-0.23405334 0.33972669 0.91700006 2.341769e-38
-0.23404689 0.34564278 0.91680944 2.341769e-38
-0.22525221 0.34543926 0.91567653 2.341769e-38
-0.2191705 0.34680247 0.91540003 2.341769e-38
-0.23377775 0.35075185 0.91660005 2.341769e-38
-0.22632572 0.35080194 0.91400003 2.341769e-38
-0.28526747 0.25734195 0.92681825 2.341769e-38
-0.27668744 0.25708804 0.92700005 2.341769e-38
-0.28263009 0.26196563 0.92614299 2.341769e-38
-0.27721715 0.26220855 0.92700005 2.341769e-38
-0.2457286 0.28575146 0.92700005 2.341769e-38
-0.23351572 0.30767572 0.92700005 2.341769e-38
-0.23229685 0.31615341 0.92683339 2.341769e-38
-0.22531447 0.31620225 0.92700005 2.1657669e-38
-0.21983144 0.3178286 0.92700005 5.3585401e-39
-0.23219144 0.32047719 0.92700005 2.341769e-38
-0.22535273 0.32462692 0.92656255 2.2773042e-38
-0.21866469 0.32619128 0.92681825 1.4544238e-38
-0.2317107 0.33645543 0.92636371 2.341769e-38
-0.22490501 0.33538792 0.92391878 2.341769e-38
-0.21579099 0.33571732 0.92549998 1.6861389e-38
-0.20853089 0.33848745 0.92700005 2.2771246e-38
-0.23307717 0.34125191 0.92350006 2.341769e-38
-0.22488891 0.3411302 0.92000002 2.341769e-38
-0.21587782 0.34366667 0.92434615 1.898941e-38
-0.20923716 0.34254861 0.92700005 2.0276601e-38
-0.29308343 0.21786848 0.93700016 2.341769e-38
-0.29392776 0.22451839 0.93651527 2.341769e-38
-0.28551492 0.22642997 0.93700016 2.341769e-38
-0.27931526 0.22934192 0.93700004 2.341769e-38
-0.29328713 0.23495589 0.93542117 2.341769e-38
-0.28517029 0.23526621 0.93572223 2.341769e-38
-0.27627066 0.23606101 0.93700022 2.341769e-38
-0.29156086 0.24482021 0.93269247 2.341769e-38
-0.28455958 0.24484019 0.93239385 2.341769e-38
-0.27535576 0.24450888 0.93521047 2.341769e-38
-0.26600319 0.24562576 0.93653864 2.341769e-38
-0.25879049 0.24897431 0.93700004 2.341769e-38
-0.29119125 0.25250706 0.93160009 2.341769e-38
-0.28414932 0.25360256 0.93028587 2.341769e-38
-0.27389869 0.25402826 0.93133348 2.341769e-38
-0.26542878 0.25474253 0.9352501 2.341769e-38
-0.25812119 0.25566718 0.93700022 2.341769e-38
-0.28136194 0.26719052 0.93000007 2.341769e-38
-0.27343267 0.26558781 0.93000025 2.341769e-38
-0.26479805 0.26479942 0.93302768 2.341769e-38
-0.25535002 0.26621625 0.93625009 2.341769e-38
-0.24485563 0.26750836 0.93700022 2.3045299e-38
-0.23767081 0.26801178 0.93700004 1.1955535e-38
-0.28143954 0.27431956 0.93516672 2.341769e-38
-0.27452311 0.27417114 0.93260002 2.341769e-38
-0.26501888 0.27480629 0.93379986 2.341769e-38
-0.25467619 0.27515712 0.93499994 2.341769e-38
-0.24445044 0.27427965 0.93576479 2.341732e-38
-0.23701893 0.27558056 0.93677795 1.5012801e-38
-0.27039143 0.2811 0.93700004 2.341769e-38
-0.26480678 0.28309599 0.93552649 2.341769e-38
-0.25471979 0.28334644 0.93475986 2.341769e-38
-0.24460058 0.2843183 0.93417853 2.341769e-38
-0.23592168 0.28510445 0.93616134 1.815749e-38
-0.22616901 0.28744581 0.93700016 2.0186555e-38
-0.24165271 0.29146796 0.93400002 2.341769e-38
-0.23471878 0.29436225 0.9351514 2.1289256e-38
-0.23319969 0.30324239 0.9327144 2.2865598e-38
-0.23503454 0.31574166 0.93125004 2.341769e-38
-0.22421515 0.31250322 0.93141198 1.5937277e-38
0.25710434 -0.3846167 0.94283342 9.2914496e-41
0.26323813 -0.38541907 0.94333339 1.8440247e-40
0.46920574 0.088817149 0.94200003 4.6242569e-40
0.47410193 0.087483503 0.94700009 3.7023426e-40
0.47795513 0.093169816 0.9471429 4.6278302e-40
0.4812229 0.09118858 0.94800007 4.6279003e-40
-0.4941811 0.15871394 0.9468751 2.0179024e-38
-0.48870003 0.15930001 0.94500005 1.9375839e-38
-0.32171813 0.15499049 0.94800007 2.341769e-38
-0.31636116 0.15818059 0.94800007 2.341769e-38
-0.50108576 0.16341716 0.94800007 1.539211e-38
-0.49463299 0.16395342 0.94707698 1.8808672e-38
-0.48870003 0.16200002 0.94500005 1.9923985e-38
-0.32087547 0.16486172 0.94800007 2.341769e-38
-0.31579864 0.16647491 0.94778574 2.341769e-38
-0.3135635 0.1743837 0.94587493 2.341769e-38
-0.30501065 0.17713143 0.94685709 2.341769e-38
-0.31211358 0.18444026 0.94624996 2.341769e-38
-0.30460483 0.18527369 0.94544107 2.341769e-38
-0.29785597 0.18719262 0.94725007 2.341769e-38
-0.31109816 0.19470572 0.94500005 2.341769e-38
-0.30524954 0.19493905 0.94422209 2.341769e-38
-0.29537109 0.19497915 0.94537485 2.341769e-38
-0.28570846 0.19706218 0.94785005 2.341769e-38
-0.27898288 0.19953144 0.94800007 2.341769e-38
-0.30428588 0.20420828 0.9429999 2.341769e-38
-0.29492852 0.20459986 0.94171792 2.341769e-38
-0.2851226 0.20545515 0.94641668 2.341769e-38
-0.27621412 0.20639317 0.94800007 2.341769e-38
-0.30265588 0.21276891 0.94066679 2.341769e-38
-0.29511002 0.21428546 0.94090021 2.341769e-38
-0.28524122 0.21566018 0.94376463 2.341769e-38
-0.27560791 0.21489994 0.94539464 2.341769e-38
-0.26610169 0.21603395 0.94788468 2.3417686e-38
-0.25912002 0.21849144 0.94800007 2.1302578e-38
-0.28297001 0.22353263 0.94025028 2.341769e-38
-0.27452394 0.22489299 0.94284827 2.341769e-38
-0.26466903 0.22505859 0.94524986 2.341769e-38
-0.25691932 0.22561985 0.94694114 2.0924081e-38
-0.27344868 0.23281515 0.94054574 2.341769e-38
-0.26482037 0.23530658 0.94314271 2.341769e-38
-0.25454372 0.23500948 0.94602638 1.944679e-38
-0.26278859 0.24307939 0.94066685 2.341769e-38
-0.25483736 0.24478792 0.9431892 2.2863078e-38
-0.4922578 0.2543048 0.94800007 2.341769e-38
-0.48769972 0.25633147 0.94733334 2.341769e-38
-0.25325364 0.25426647 0.94108707 2.341769e-38
-0.2533524 0.26179323 0.94000012 2.341769e-38
-0.24506815 0.26306719 0.94120008 1.9723768e-38
-0.28110477 0.28020954 0.94000006 2.341769e-38
0.22773668 -0.3907986 0.95650005 1.8475139e-40
0.24648099 -0.39018577 0.9550001 1.8510732e-40
0.25011906 -0.39018574 0.95500004 1.8582479e-40
0.22931764 -0.38947764 0.95550007 1.8475279e-40
0.23473509 -0.38863572 0.95363635 1.8440387e-40
0.24346402 -0.38949946 0.95600015 1.847542e-40
0.25402531 -0.38815722 0.95300007 1.8547026e-40
-0.33119431 0.10401143 0.95800006 2.341769e-38
-0.32936954 0.10674858 0.95800006 2.341769e-38
-0.33119431 0.11678477 0.95800006 2.341769e-38
-0.32787657 0.11603827 0.95800012 2.341769e-38
-0.33200532 0.12459069 0.95800006 2.341769e-38
-0.32473984 0.12496936 0.95780015 2.341769e-38
-0.31811687 0.12560445 0.95800012 2.341769e-38
-0.52281779 0.1370306 0.95762515 2.1937525e-38
-0.51429492 0.13637483 0.95547819 1.5949878e-38
-0.50523752 0.13701199 0.95655006 1.9457633e-38
-0.49868029 0.13902883 0.95725012 1.2720599e-38
-0.33180258 0.13837779 0.95800006 2.341769e-38
-0.32506669 0.13475938 0.95606673 2.341769e-38
-0.31541419 0.13514625 0.95627278 2.341769e-38
-0.30792859 0.13640097 0.95800012 2.341769e-38
-0.53297472 0.14519127 0.9564001 2.2956359e-38
-0.52512527 0.14470358 0.95559996 2.341769e-38
-0.51461744 0.14493826 0.95371443 2.2957435e-38
-0.50498348 0.14516529 0.95405871 2.0009717e-38
-0.49538103 0.14541504 0.95362967 1.7428257e-38
-0.4892067 0.14431144 0.95300007 1.4480884e-38
-0.46782899 0.14780192 0.9568001 1.7984671e-38
-0.33067572 0.14210716 0.95650005 2.341769e-38
-0.32424045 0.14498933 0.95364302 2.341769e-38
-0.31481531 0.14497578 0.95412117 2.341769e-38
-0.30438167 0.14490108 0.95690012 2.341769e-38
-0.29834861 0.14689335 0.95800006 2.341769e-38
-0.54289794 0.1586293 0.95725012 2.341769e-38
-0.53352684 0.15275429 0.95714295 2.1006998e-38
-0.52434039 0.15430062 0.95464295 2.1299725e-38
-0.51500767 0.1546758 0.95335698 1.7976389e-38
-0.50547171 0.15494782 0.9527306 2.2680844e-38
-0.4971405 0.15336548 0.95081818 1.7697667e-38
-0.47321835 0.1559504 0.95694125 2.1390835e-38
-0.46483439 0.15478185 0.95526671 1.6876188e-38
-0.45870322 0.15613493 0.9550001 2.0744389e-38
-0.32179368 0.15350795 0.95000005 2.341769e-38
-0.31382188 0.15416397 0.95252955 2.341769e-38
-0.30437505 0.15446195 0.95557582 2.341769e-38
-0.29588422 0.15540574 0.9568463 2.341769e-38
-0.27736384 0.15966667 0.95800006 1.8336697e-38
-0.54213697 0.1643945 0.95600003 2.3325854e-38
-0.53611147 0.16449234 0.95716679 2.341769e-38
-0.52453792 0.16469283 0.9565556 2.341769e-38
-0.51479363 0.16476034 0.95344418 1.8065317e-38
-0.50467002 0.16478002 0.95122206 1.8719358e-38
-0.49576658 0.16713376 0.95088887 2.0371674e-38
-0.47609818 0.16401936 0.95743757 2.2587938e-38
-0.46884641 0.1615378 0.95466679 2.2683006e-38
-0.313923 0.16450876 0.95083332 2.341769e-38
-0.30522493 0.16532969 0.95383304 2.341769e-38
-0.29503152 0.16485624 0.95562071 2.341769e-38
-0.28724802 0.16650954 0.95800012 2.341769e-38
-0.27775487 0.16435893 0.95800018 2.1107009e-38
-0.52206445 0.17280497 0.95800012 1.9091014e-38
-0.51406676 0.17503862 0.95546436 1.3370586e-38
-0.50462753 0.17593434 0.95523077 1.8531731e-38
-0.49722886 0.17517042 0.9549334 1.9732419e-38
-0.48517904 0.1767029 0.95768428 1.8342324e-38
-0.47866264 0.1765516 0.95628577 1.6038539e-38
-0.31033334 0.17190477 0.95000005 2.341769e-38
-0.30445537 0.17246038 0.95021421 2.341769e-38
-0.29479837 0.17449997 0.95332497 2.341769e-38
-0.51368636 0.18347833 0.95778584 1.2906032e-38
-0.50447118 0.1841715 0.95657903 2.1852525e-38
-0.49546695 0.18502836 0.95600009 1.8623513e-38
-0.48848876 0.18229373 0.95800012 2.092987e-38
-0.47717527 0.18338859 0.95800006 2.341769e-38
-0.4616648 0.18886288 0.95800006 1.9548383e-38
-0.45527816 0.18834153 0.95800018 2.0102996e-38
-0.29422036 0.18399298 0.95100009 2.341769e-38
-0.2848303 0.18482634 0.95263886 2.341769e-38
-0.51319873 0.19575565 0.95780021 2.0190878e-38
-0.50542945 0.19419783 0.95731831 2.1480522e-38
-0.49729034 0.19089225 0.95750016 2.3417689e-38
-0.47453701 0.19494289 0.95714301 2.0747989e-38
-0.46427646 0.1963874 0.95536846 2.074656e-38
-0.45554921 0.19446333 0.95590913 1.6406935e-38
-0.44980383 0.19342476 0.95800006 1.4831322e-38
-0.29115239 0.1923524 0.94999999 2.341769e-38
-0.28416488 0.1928535 0.94999993 2.341769e-38
-0.27500108 0.19496344 0.95346355 2.3325493e-38
-0.51671183 0.20224446 0.95800006 1.8530666e-38
-0.47022384 0.20100477 0.95500004 2.3416247e-38
-0.46394327 0.20274879 0.95464289 1.6691794e-38
-0.45772773 0.20409997 0.95550013 1.6317234e-38
-0.31033334 0.20447621 0.95000005 2.341769e-38
-0.27329546 0.20338508 0.95136851 2.341769e-38
0.2051764 -0.39484394 0.96845448 1.8474999e-40
0.21598975 -0.39305297 0.96652943 1.847556e-40
0.2235146 -0.39134625 0.96338469 1.8475279e-40
0.2474924 -0.3906607 0.96366668 1.8474999e-40
0.22604983 -0.38951761 0.96428591 1.8475139e-40
0.23486668 -0.38900161 0.96333349 1.8439967e-40
0.24473591 -0.38894883 0.96244454 2.7623376e-40
0.25443619 -0.38897622 0.96100003 1.8511433e-40
-0.3310886 0.06878572 0.96300006 1.6114075e-38
-0.32484573 0.069214292 0.96900004 1.6115154e-38
-0.35052001 0.078200005 0.96600002 1.7311536e-38
-0.34366688 0.075858898 0.96483326 1.6207695e-38
-0.33475742 0.074638717 0.96522558 1.5836759e-38
-0.32607156 0.074389406 0.96885711 1.6391012e-38
-0.34500834 0.084308907 0.96683979 2.0642104e-38
-0.33433047 0.084663175 0.9647997 2.2677954e-38
-0.32531378 0.085616395 0.9674443 2.3233653e-38
-0.31543264 0.088409729 0.96899998 2.341769e-38
-0.34452498 0.09545099 0.96710515 2.341769e-38
-0.33452353 0.095217392 0.96283847 2.341769e-38
-0.32466009 0.095365204 0.96528947 2.341769e-38
-0.31469432 0.095054299 0.96899992 2.341769e-38
-0.34325662 0.10350511 0.96664274 2.341769e-38
-0.33540699 0.10526206 0.96275008 2.341769e-38
-0.32428673 0.10494438 0.96364707 2.341769e-38
-0.31474134 0.10521776 0.96714693 2.341769e-38
-0.28287858 0.10872715 0.96750003 1.8233466e-38
-0.33622071 0.11468874 0.96338886 2.341769e-38
-0.32447025 0.11484406 0.96100026 2.341769e-38
-0.31532431 0.11501253 0.96483326 2.341769e-38
-0.52152717 0.12899858 0.96750003 1.5856286e-38
-0.51528633 0.12914287 0.96719998 1.1701016e-38
-0.50876004 0.12972 0.96600002 1.4202506e-38
-0.49424154 0.12640499 0.96879995 1.8722592e-38
-0.48567742 0.12736358 0.96674991 1.6874391e-38
-0.46142861 0.12827715 0.96900004 1.8435476e-38
-0.45503545 0.12707937 0.96853846 1.7238094e-38
-0.44726521 0.12713055 0.9673124 2.1666346e-38
-0.33773965 0.12415393 0.96562511 2.341769e-38
-0.31392556 0.12431649 0.96293759 2.341769e-38
-0.54380769 0.13589269 0.96656239 2.341769e-38
-0.53498918 0.13485514 0.96480757 2.3325853e-38
-0.52590793 0.13292651 0.96483326 1.8996298e-38
-0.51444894 0.13184391 0.96211118 1.1068218e-38
-0.50435334 0.13363463 0.96539128 1.835165e-38
-0.49704957 0.13460833 0.96649998 1.82598e-38
-0.48576003 0.13156001 0.96600002 1.9084542e-38
-0.47259933 0.13878216 0.96825004 1.8449235e-38
-0.46344945 0.13543883 0.9674443 2.2312786e-38
-0.44751757 0.1325845 0.96771431 2.2678687e-38
-0.31331655 0.13148922 0.96100008 2.341769e-38
-0.30436927 0.13402383 0.96209115 2.341769e-38
-0.55186868 0.14611906 0.96900004 2.1663809e-38
-0.54484975 0.1447286 0.9644286 2.1757824e-38
-0.53696233 0.14250445 0.96122223 2.2498615e-38
-0.52900767 0.14003144 0.96100003 2.341769e-38
-0.49528077 0.14246215 0.96350002 1.4943329e-38
-0.4749943 0.14497349 0.9643333 1.7980721e-38
-0.46512708 0.14478366 0.9659729 2.0838753e-38
-0.30294383 0.14003144 0.96100008 2.341769e-38
-0.29441947 0.14442076 0.96142447 2.341769e-38
-0.55101287 0.15111285 0.96750003 1.8151344e-38
-0.54395592 0.15481418 0.96247375 1.8718623e-38
-0.53661978 0.15576833 0.96128595 2.1293614e-38
-0.48477823 0.15591583 0.96587497 2.2587934e-38
-0.47831205 0.15455173 0.9618572 2.2957422e-38
-0.54146767 0.16903764 0.96200007 2.341769e-38
-0.53457654 0.16376144 0.96123552 2.341769e-38
-0.52900767 0.16748857 0.96100003 2.341769e-38
-0.48573965 0.16512805 0.9616155 1.9916809e-38
-0.47775429 0.16840382 0.96100003 2.2958508e-38
-0.45399168 0.16465177 0.96344435 1.6420216e-38
-0.54433793 0.1750176 0.9625653 2.3141463e-38
-0.53523439 0.17544647 0.96262956 2.341769e-38
-0.52632612 0.17547859 0.96170604 2.1851463e-38
-0.49534994 0.17495976 0.96289486 2.2682289e-38
-0.48533824 0.17276691 0.96138483 2.1208969e-38
-0.52566832 0.18525654 0.9622308 1.9721594e-38
-0.51634681 0.18762384 0.96100014 1.3464232e-38
-0.50856733 0.18823397 0.96100008 2.341769e-38
0.36884096 0.29379144 0.96100003 1.3991022e-38
0.37231016 0.29522192 0.96366668 1.3714794e-38
0.17958191 -0.3991743 0.97700006 2.7659249e-40
0.18614574 -0.3968724 0.97657162 1.84757e-40
0.19486161 -0.39416739 0.97351736 1.8511013e-40
0.20403495 -0.39263687 0.97233343 1.847584e-40
0.21446703 -0.39179587 0.97254556 1.8511153e-40
0.22417462 -0.39052767 0.9740001 1.8511293e-40
0.23097716 -0.39052764 0.97400004 1.8510872e-40
0.25457144 -0.39157715 0.97200006 2.7658829e-40
0.22680002 -0.38972574 0.97200006 1.8511153e-40
0.23605716 -0.38941717 0.97200006 2.7658549e-40
0.24253717 -0.38972574 0.97200006 2.7623096e-40
-0.32223162 0.075653479 0.97385722 1.8423999e-38
-0.34899431 0.088868573 0.97200006 2.341769e-38
-0.3227829 0.082456008 0.97280008 2.3325496e-38
-0.34899434 0.09349715 0.97200006 2.341769e-38
0.37754098 0.29962099 0.97400004 1.3897372e-38
-0.54273349 0.35384688 0.97700024 1.9617123e-38
-0.53592891 0.35459307 0.97668427 1.9708959e-38
-0.54464829 0.3651655 0.97488463 1.9525299e-38
-0.5356952 0.36501029 0.97494125 1.9162665e-38
-0.55007815 0.37197527 0.97400004 1.9342354e-38
-0.54488242 0.37551603 0.97355556 1.9065752e-38
-0.52587521 0.37280196 0.97350019 1.9069384e-38
-0.5151096 0.3750585 0.97283888 1.7783674e-38
-0.50637418 0.37445012 0.97305882 1.2896232e-38
-0.47674289 0.37121144 0.97200006 2.1367767e-38
-0.54395342 0.38178575 0.97300005 1.9250143e-38
-0.53502959 0.38400707 0.97284639 1.9345568e-38
-0.52622533 0.38402095 0.97228587 1.925088e-38
-0.51396489 0.38353592 0.97666675 1.9895156e-38
-0.50447172 0.384298 0.97437507 1.8242052e-38
-0.49532512 0.38515779 0.97269243 1.1603679e-38
-0.48839796 0.38655227 0.97216672 1.0865445e-38
-0.51429099 0.39431959 0.97650015 1.878992e-38
-0.50694382 0.39238286 0.97400004 1.9896937e-38
-0.49155432 0.39157715 0.97200006 1.9251938e-38
-0.48717526 0.39363098 0.97250009 1.9895854e-38
-0.49724305 0.40386945 0.97485721 1.8332888e-38
0.14961144 -0.40366861 0.98800004 1.8512554e-40
0.15511458 -0.40235996 0.98710006 2.7731276e-40
0.16418648 -0.4012838 0.98400003 1.8547306e-40
0.17453335 -0.40040001 0.98000002 1.847542e-40
0.31710097 -0.40272766 0.98800004 1.8582619e-40
0.32651049 -0.40366861 0.98800009 1.8582479e-40
0.33121526 -0.40272766 0.98800004 2.7622535e-40
0.16671951 -0.39892298 0.986 1.8547446e-40
0.17537983 -0.39702377 0.98376185 2.765939e-40
0.1838104 -0.3948397 0.98219985 2.765939e-40
0.19497137 -0.39138961 0.98209095 2.7659109e-40
0.20504467 -0.39229703 0.98309088 3.6878112e-40
0.21494494 -0.39314768 0.98483324 1.847556e-40
0.22481889 -0.39238897 0.98545456 1.847598e-40
0.23554154 -0.3925831 0.98380011 1.8475139e-40
0.24590811 -0.39326143 0.98550004 1.8439546e-40
0.25123429 -0.39614099 0.98800004 2.7623376e-40
0.26494431 -0.39741862 0.98650002 1.8475279e-40
0.19793813 -0.38930959 0.98500007 2.7694842e-40
-0.54860765 0.33047527 0.98300004 1.9155421e-38
-0.55377781 0.35668895 0.9799999 1.9156154e-38
-0.54824007 0.35690668 0.97999996 1.9340902e-38
-0.55346674 0.36213338 0.98000002 1.9156521e-38
-0.54824001 0.36194667 0.98000002 1.9433082e-38
-0.52173334 0.38360003 0.98000002 1.6675533e-38
-0.51644444 0.38702226 0.98000002 1.9526744e-38
-0.51525289 0.39289415 0.98426664 1.95271e-38
0.13737167 -0.40595168 0.99475002 2.7658969e-40
0.14517383 -0.40423381 0.99330783 1.8511293e-40
0.15474375 -0.40123025 0.9930771 1.8547867e-40
0.27637991 -0.40171915 0.99290931 9.2557165e-41
0.28420135 -0.40279067 0.99140018 9.2197031e-41
0.29441452 -0.40327975 0.99400008 1.8439406e-40
0.30427086 -0.40326095 0.99331826 1.8475139e-40
0.31503713 -0.4026581 0.99210536 2.7694983e-40
0.32503554 -0.40263125 0.99364716 1.8547026e-40
0.3303867 -0.40233335 0.99400002 3.6843079e-40
0.16483042 -0.39849052 0.99423087 1.8511293e-40
0.17520887 -0.39682278 0.99442869 1.8511713e-40
0.18482402 -0.39523658 0.9952001 2.7733098e-40
0.19312 -0.39381337 0.99400002 2.7730856e-40
0.20759685 -0.39254838 0.99533349 2.7658689e-40
0.21497519 -0.3922793 0.9938001 1.8439827e-40
0.22424525 -0.39203605 0.99350011 2.7659109e-40
0.23448935 -0.39333621 0.99280006 2.7622676e-40
0.24568042 -0.39284807 0.99456251 1.8439406e-40
0.2553179 -0.39457905 0.99474996 2.7622676e-40
0.26487511 -0.39563867 0.99621725 1.8439266e-40
0.27524063 -0.39446473 0.99549985 1.8439126e-40
0.28512743 -0.39501387 0.99363631 2.7623096e-40
0.29497793 -0.39498779 0.99478269 1.847584e-40
0.30508879 -0.39702499 0.99471432 2.7659249e-40
0.31534505 -0.39549801 0.9960357 2.7695263e-40
0.32473716 -0.39974955 0.99700004 1.8475139e-40
0.26871526 -0.38645622 0.99700004 2.7658409e-40
0.27472892 -0.38740575 0.9970001 1.8474859e-40
0.28489301 -0.38864517 0.99580014 1.8510872e-40
0.29291305 -0.38770416 0.99533337 2.7694422e-40
0.3142924 -0.38835526 0.99700004 2.7659109e-40
-0.31995144 0.22934572 0.99100006 2.341769e-38
